53.9101719017	-16.8821827096	20.6032833289
53.6377304701	-17.2316296688	22.1196808508
53.3623669537	-17.5831965719	23.6442526915
53.0840527047	-17.9367115315	25.1113670428
52.8027476161	-18.2921745476	26.0590075972
52.5184230398	-18.6495856202	27.0139034084
52.2310388689	-19.0088874535	27.9733504275
51.940560726	-19.3700227518	28.9374508789
51.6469542334	-19.732991515	29.9064312755
51.3501907434	-20.0977364474	30.8803117772
51.0502244194	-20.4641429574	31.8589909713
50.7470266133	-20.832211045	32.8427162373
50.4405572183	-21.2018834144	33.8315309821
50.1307818568	-21.5731600656	34.8254643857
49.8176718809	-21.9458691114	35.8910926637
49.5011871836	-22.3200678474	36.9770465182
49.1812933874	-22.6956416821	38.0693358254
48.8579503853	-23.0725333197	39.1745651589
48.5311295294	-23.4506854645	74.3434310857
48.2007964422	-23.8300408207	99.9751510338
47.8669110167	-24.2104847966	100
47.5294446049	-24.5920173924	100
47.1883570999	-24.9744667207	100
46.8436198537	-25.3578900772	100
46.4951927593	-25.7421155746	100
46.1430528985	-26.1271432129	100
45.7871544344	-26.5128011048	100
45.427474449	-26.8990892503	100
45.0639785646	-27.285835762	100
44.6966381334	-27.6730406399	100
44.3254187779	-28.0605892926	100
43.9502861207	-28.4484244241	100
43.571222973	-28.8363741472	100
43.1881892278	-29.2244384618	100
42.8011619668	-29.6124454807	100
42.410112542	-30.0003952038	100
42.0150180353	-30.3881157437	100
41.6158555281	-30.775492509	100
41.2125906432	-31.1625254996	100
40.8052119213	-31.5490428282	100
40.3936907145	-31.9349299032	100
39.9780098341	-32.3201294289	100
39.5581463618	-32.7045841094	100
39.1340888385	-33.0881220575	100
38.7058200754	-33.4706286815	100
38.2733228837	-33.8520466857	100
37.8365800748	-34.2322614786	100
37.3955916486	-34.6111584685	100
36.9503404165	-34.9886803597	100
36.5008206487	-35.3646552649	100
36.0470266158	-35.7390258882	100
35.5889525882	-36.1116776382	100
35.1266042954	-36.4824959232	100
34.6599702783	-36.8513661517	100
34.1890677257	-37.2182310279	99.9884821673
33.7138966374	-37.5829759603	100.061082111
33.2344570136	-37.9455436531	99.9922293625
32.7507717725	-38.3057049231	100.016460281
32.2628466438	-38.6634597704	100.021330357
31.7706988161	-39.0186936033	107.235300383
31.2743454782	-39.3713491262	366.818644455
30.7738095483	-39.7212544517	97.9002352127
30.2691196745	-40.068352284	151.2023371
29.7602987749	-40.4125853273	234.101970159
29.247369768	-40.7537816943	133.665335351
28.7303784903	-41.091941385	151
28.2093593193	-41.4268925121	151
27.6843466325	-41.7586350754	151
27.1553862664	-42.0870544836	151
26.6225240578	-42.412036145	151
26.0858058432	-42.7335227638	151
25.545294648	-43.0514570444	151
25.0010420384	-43.3657816908	151
24.4531110398	-43.6763248157	151
23.9015589479	-43.983143715	151
23.3464602472	-44.2861237971	151
22.7878779632	-44.5851504704	151
22.2258923098	-44.8802237349	151
21.6605835013	-45.1712862948	151
21.0920202924	-45.4582808544	151.002547315
20.5203058157	-45.741092822	150.629712758
19.9455145556	-46.0197221978	98.1866206893
19.367743915	-46.2941689817	121.746897993
18.7870855671	-46.5643185821	150.887628588
18.2036426443	-46.8301137033	151
17.6175125495	-47.091611641	151
17.0288041446	-47.3486978036	151
16.4376262916	-47.6013148955	151
15.8440821228	-47.8495775081	151
15.2482919596	-48.0933137542	151
14.6503761229	-48.3325236336	151
14.0504434748	-48.5672644423	151
13.4486257955	-48.7974215886	150.949521662
12.8450376766	-49.0231096641	141.518287506
12.2398166281	-49.2442140773	151
11.6330887005	-49.460734828	150.988902961
11.0249799446	-49.6726719165	148.605982882
10.4156221408	-49.8800826383	151
9.80515852837	-50.082852402	151
9.19372088771	-50.2811530949	151
8.5814409991	-50.4748128296	151
7.96846783156	-50.6640034936	151
7.3549274358	-50.8486104952	151
6.74097451043	-51.0286911302	151
6.12673510616	-51.2043026944	151
5.51236277568	-51.375387892	151
4.89799273703	-51.5420613146	151
4.28376651079	-51.7042656664	151
3.66982561753	-51.862115539	151
3.05631100487	-52.0154963407	151
2.44336247452	-52.164579959	151
1.83111925521	-52.3093663939	151
1.21972000273	-52.4498556452	151
0.609301653992	-52.5861623047	151
0	-52.7181717807	151
57.7705323421	-12.5276461708	0.218512589848
57.5367655617	-12.8475285078	1.35156512462
57.3005350628	-13.1697599718	2.80490116053
57.0618121974	-13.4943405627	4.26715443311
56.8205396699	-13.8212129849	5.73910021958
56.5767002915	-14.1504345339	7.22079009585
56.330253955	-14.4819479142	8.71255456098
56.0811777423	-14.8157531256	10.214260614
55.8294372759	-15.1517928725	11.7256816727
55.5749924487	-15.4900671547	13.2466124455
55.3178146127	-15.8305759724	14.7769277301
55.0578693907	-16.1732620296	16.2602227777
54.795122405	-16.5181826223	17.7429121651
54.5295392782	-16.865165863	19.2339047001
54.2610856329	-17.2143263434	20.7335136423
53.9897270915	-17.5655494718	22.241235748
53.7154292767	-17.9187779525	23.7573844961
53.4381520813	-18.2740690813	25.1702658029
53.1578668575	-18.6313655623	26.137514285
52.8745334982	-18.9905528041	27.1036656932
52.588117626	-19.3516881024	28.0746844574
52.2985848634	-19.7146568656	29.0505243887
52.0058951033	-20.0794590937	30.0313491175
51.7100196979	-20.4459801953	31.0170866998
51.4109128106	-20.814277466	32.0080056171
51.1085400638	-21.1842363143	33.0040674577
50.8028670801	-21.5557994444	34.005359621
50.4938537524	-21.9289668564	35.0155557744
50.1814714329	-22.3036239586	36.0885614557
49.8656800146	-22.6797707512	37.1708350959
49.5464336607	-23.0572353466	38.2591905913
49.223709453	-23.4361323365	39.3174208745
48.8974615549	-23.8162325378	43.0842206953
48.5676613184	-24.1975359505	99.5544861984
48.234262907	-24.5799852787	100
47.8972376728	-24.963465931	100
47.5565455086	-25.3479779073	100
47.2121520371	-25.7334066161	100
46.8640228808	-26.1196374658	100
46.5121236622	-26.5066704564	100
46.1564142742	-26.8943337006	100
45.7968717986	-27.2826271983	100
45.4334503988	-27.6714936539	100
45.0661214267	-28.0607038841	100
44.6948562346	-28.4503151848	100
44.319620445	-28.8401556686	100
43.9403796804	-29.2301680398	100
43.5570995634	-29.6202377067	100
43.1697629051	-30.0103073736	100
42.7783295987	-30.400262449	100
42.3827824552	-30.7899883412	100
41.9830813678	-31.1794277546	100
41.579203418	-31.5684660975	100
41.1711314171	-31.9569887784	100
40.7588367173	-32.3449385014	100
40.3422964003	-32.7321433794	100
39.9214932772	-33.1185461164	100
39.4963987003	-33.5040894168	100
39.0670012103	-33.8885440973	100
38.6332836185	-34.271910158	100
38.1952287363	-34.6540730074	100
37.7528251043	-35.0349180538	100
37.3060612636	-35.4143307057	100
36.8549257548	-35.7921963716	100
36.3994128486	-36.1684004599	100
35.9395110856	-36.5428856748	100
35.4752261954	-36.9155374248	100
35.0065524486	-37.2862411182	100
34.533489845	-37.6548821636	100
34.0560383848	-38.0213459694	100
33.5742152565	-38.3855752397	100
33.0880204603	-38.7474553831	100
32.5974654553	-39.106871808	100
32.1025674302	-39.4637099228	107.697938672
31.6033435737	-39.8179124318	369.508586987
31.0998110746	-40.1693647433	171.765911163
30.5919928512	-40.5180095616	152.461553292
30.0799118218	-40.8636749994	370.879410244
29.5636023639	-41.2063037609	134.793833938
29.0430988549	-41.5458385503	151
28.5184299427	-41.8821647761	151
27.989641464	-42.2151678466	151.077915749
27.4567677962	-42.5448477619	151
26.9198605056	-42.8710326347	151
26.3789654287	-43.1936651691	151.001094893
25.8341398613	-43.5127453652	151
25.2854353696	-43.8280440399	150.960185337
24.732914979	-44.1396757847	151.017697671
24.1766417149	-44.4474114164	151
23.6166900617	-44.7512509352	151
23.0531173153	-45.0511370452	151
22.4860094192	-45.3470124506	151
21.9154408581	-45.6387625598	151
21.341491846	-45.926387373	151
20.7642597857	-46.2098295942	150.903780098
20.1838191618	-46.4890319278	121.269674661
19.6002731066	-46.7638797821	117.73140851
19.0137132934	-47.034430453	150.506959608
18.4242428546	-47.3006266446	151
17.8319706522	-47.5624110612	151
17.236994089	-47.8196691112	151
16.6394334862	-48.0725153862	151
16.039391976	-48.3207779988	151
15.437001339	-48.5645715407	151
14.8323647074	-48.8037241244	151
14.225619591	-49.0383503415	151
13.6168805816	-49.2683356004	151
13.0062851889	-49.493737197	151
12.3939537341	-49.7144978355	151
11.7800294566	-49.9306748116	151
11.1646441368	-50.1421535338	151
10.5479352844	-50.3489912978	151
9.93003467982	-50.5512453995	151
9.31109702163	-50.7488012473	151
8.69124836054	-50.9417734327	151
8.07064912475	-51.1301619557	151
7.44943109453	-51.3139095206	151
6.82774323892	-51.4930161274	151
6.20572879737	-51.6676536633	151
5.58354074961	-51.8376502411	151
4.96132233509	-52.0031777482	151
4.33921965804	-52.1642361844	151
3.71737996861	-52.320768254	151
3.09594994402	-52.4728885486	151
2.4750739696	-52.6205970682	151
1.85489814962	-52.7638938127	151
1.23556572351	-52.9028933738	151
0.617218784805	-53.0375957515	151
0	-53.1680009457	151
58.1063429059	-12.837616338	0.248261082367
57.8738939284	-13.1589883652	1.60244595847
57.6389812324	-13.4827668153	3.04574913592
57.4015475221	-13.8088370965	4.49939532275
57.1615526904	-14.1373138004	5.96274012104
56.9189967374	-14.4680823356	7.43570918716
56.6738223673	-14.8011999976	8.91878926237
56.4260009322	-15.1366094909	10.4116826766
56.1755037842	-15.4742535196	11.9141453386
55.9222908162	-15.8141893794	13.4262397582
55.6663276508	-16.1563597747	14.9455131299
55.4075856401	-16.5007074096	16.4150450317
55.146024677	-16.8472895798	17.8890694755
54.8816103841	-17.195991694	19.3715306105
54.6143026544	-17.5468137519	20.8623254187
54.3440785695	-17.8997557537	22.3613227069
54.0708922928	-18.2547604036	23.8694131782
53.7947037172	-18.6118277015	25.2515050178
53.5154899245	-18.9709003517	26.2178529769
53.2331993484	-19.3318637626	27.1956623772
52.9478090706	-19.6947752301	28.1785104678
52.659267525	-20.0595774582	29.1664043317
52.3675517932	-20.4262131513	30.1593998178
52.072610309	-20.7946250136	31.157532575
51.7744144245	-21.1647557493	32.1608934067
51.4729297623	-21.5366053583	33.1696584279
51.1681047561	-21.9100592492	34.1837165694
50.8599164877	-22.2851174219	35.2129653231
50.5483133908	-22.6617225806	36.2847644785
50.2332725472	-23.0397601338	37.3632289435
49.914736661	-23.4192300815	38.4479164895
49.5926828139	-23.8000178322	39.4355088769
49.2670708989	-24.18206609	45.704738672
48.937860809	-24.5653748549	100.780889249
48.6050067075	-24.9497722397	100
48.2684856761	-25.3352582442	100
47.9282518782	-25.7217755728	100
47.5842652068	-26.1092096339	100
47.2364912843	-26.4974458359	100
46.8848957333	-26.8864841788	100
46.5294441763	-27.276210071	100
46.1700907768	-27.6665662169	100
45.8068126164	-28.0573807289	100
45.4395638584	-28.448710903	100
45.0683101255	-28.840327556	100
44.6930284993	-29.2322306878	100
44.3136731431	-29.6242484113	100
43.9302154091	-30.0163807262	100
43.5426266495	-30.4085130412	100
43.1508724866	-30.8005307647	100
42.7549242727	-31.1922620092	100
42.3547533599	-31.5837640706	100
41.9503253706	-31.9748077658	100
41.5416231162	-32.3653930947	100
41.1286122191	-32.7552908743	100
40.7112697612	-33.1445584003	100
40.289572824	-33.5329664896	100
39.8635042188	-33.9204578465	100
39.4330352977	-34.3069178793	100
38.998148872	-34.6922319965	100
38.5588334826	-35.0763429024	100
38.1150662111	-35.4590787095	100
37.6668355984	-35.8403821222	100
37.2141359149	-36.2201385488	100
36.7569442423	-36.5982906936	100
36.2952663101	-36.9746093734	100
35.8290849297	-37.3490945883	100
35.3584058306	-37.7215744509	100
34.8832175536	-38.0919916655	100
34.4035315579	-38.4602316404	100
33.9193535732	-38.8261797842	100
33.4306778697	-39.189778801	100
32.9375216363	-39.5508568035	100
32.4398963321	-39.9092992001	123.459658473
31.9378191458	-40.2651059909	374.849493602
31.4313015366	-40.6181625842	368.014444739
30.9203721523	-40.9682970928	367.141700668
30.4050481818	-41.3154522209	367.979113582
29.8853640025	-41.6595133769	373.377940283
29.3613482622	-42.0004805608	131.981091891
28.8330353385	-42.3381245894	141.30776461
28.3004596087	-42.6725027587	194.165293296
27.7636669096	-43.0033858854	135.871434169
27.2226973482	-43.3308312653	172.414431152
26.6776024906	-43.6546670111	203.896403632
26.1284396327	-43.9747785312	157.986321749
25.5752603407	-44.2912231215	299.529220699
25.0181219103	-44.6038288945	156.262190522
24.4570873669	-44.9125385545	151.021436976
23.8922369246	-45.2172948057	151
23.3236278791	-45.5180403524	151
22.7513404446	-45.8147178987	151
22.1754605647	-46.1072128531	151
21.5960627239	-46.3955252156	151
21.013232866	-46.6795976905	151
20.4270741233	-46.9593156861	150.653219282
19.8376724394	-47.2346792024	154.741110107
19.2451252173	-47.5056882395	151
18.6495413188	-47.7722282058	151
18.0510238764	-48.0342991013	151
17.4496817521	-48.2917863344	151
16.8456295375	-48.5448044967	151
16.2389875536	-48.7931817009	151
15.6298646624	-49.0369752428	151
15.0183983739	-49.2761278264	151
14.4047090091	-49.510639452	151
13.7889226188	-49.7404528236	151
13.1711709832	-49.9656252371	151
12.5515973419	-50.1860993967	151
11.930333475	-50.4018180065	151
11.3075168926	-50.6128956583	151
10.6832908339	-50.8192177603	151
10.0578042681	-51.0208416084	151
9.43120043464	-51.2177672026	151
8.8036225729	-51.4099945429	151
8.17521965193	-51.597580925	151
7.54614637035	-51.7804690532	151
6.91655169717	-51.9586589275	151
6.286590331	-52.1322651394	151
5.65640551129	-52.3012303932	151
5.02615594735	-52.4656119846	151
4.39599232708	-52.6254099137	151
3.76606820317	-52.7806814761	151
3.13653483648	-52.9314839678	151
2.50754348785	-53.0777600929	151
1.87924541817	-53.219624443	151
1.25179016939	-53.3571343138	151
0.625326137606	-53.4902324096	151
0	-53.619033322	151
58.4438150472	-13.1479302798	0.390058955162
58.2127411684	-13.4708492931	1.84964493694
57.9791462753	-13.7961174334	3.28412621127
57.7430876637	-14.1237347007	4.72931008984
57.5043934463	-14.4537583907	6.18407373699
57.2631839441	-14.7861312076	7.64854203187
57.0193216474	-15.1207958558	9.12287160413
56.7728008264	-15.4577523351	10.6068953479
56.5235928334	-15.7970579414	12.1006990884
56.2716575613	-16.138598083	13.6038449758
56.0169549031	-16.4824300559	15.1086983668
55.7594562108	-16.8284392684	16.5681388296
55.499127107	-17.1766830163	18.033675606
55.2359274847	-17.5271040038	19.5076893143
54.9698229663	-17.8796449351	20.9899314021
54.7007791744	-18.2343058103	22.4802855985
54.4287502724	-18.5910866293	23.9781740871
54.1537076125	-18.9498728006	25.3219556457
53.8756110875	-19.3106643242	26.3001359386
53.5944205903	-19.6734612001	27.2900661992
53.3101017437	-20.0382061325	28.2851500756
53.0226087108	-20.4047845298	29.2853146724
52.7319128439	-20.7732536879	30.2907902384
52.4379740358	-21.1434990151	31.301569467
52.14074645	-21.5155205114	32.3178439938
51.840195709	-21.8892608812	33.3396504548
51.5362874353	-22.2646055328	34.3668089375
51.2289700627	-22.6415544662	35.4109124194
50.9182092138	-23.0200503857	36.479671094
50.6039705111	-23.4000359954	37.5544177322
50.2862138475	-23.7813967038	38.6352361675
49.9648933864	-24.164132511	39.7470559516
49.6399690207	-24.5481861211	49.136618486
49.3114121027	-24.9334429425	106.886525717
48.979171066	-25.3198456796	100.001654384
48.6432115333	-25.7073370364	100
48.3034933974	-26.0958024215	100
47.9599765513	-26.4852418349	100
47.6126266176	-26.8755406849	100
47.2613977596	-27.2665843801	100
46.9062613295	-27.6583156246	100
46.5471657609	-28.0506771227	100
46.1840881357	-28.4435542828	100
45.8169826172	-28.8368898092	100
45.445814828	-29.2305691102	100
45.0705446609	-29.6245348902	100
44.6911434681	-30.0186152616	100
44.3075711426	-30.4128102247	100
43.9197933069	-30.806947892	100
43.527781313	-31.2009709677	100
43.1315007836	-31.594822156	100
42.7309173411	-31.9883295697	100
42.3260023377	-32.381435913	100
41.9167271255	-32.7740265942	100
41.5030630566	-33.1659870219	100
41.084981483	-33.5572026044	100
40.662453757	-33.947616046	100
40.2354626898	-34.3371127551	100
39.803985363	-34.7255781402	100
39.3679873992	-35.1128403139	100
38.9274630689	-35.4988992763	100
38.4823894536	-35.8836404357	100
38.0327493647	-36.2668346091	100
37.5785256135	-36.6485390922	100
37.1197124703	-37.028524702	100
36.656298476	-37.4067341425	100
36.1882721715	-37.7830528224	100
35.7156278271	-38.1573661499	100
35.2383597133	-38.5295595336	100
34.7564735598	-38.8995756777	100
34.2699693663	-39.2672426949	100
33.7788528627	-39.632560585	100
33.2831240487	-39.9953001651	100
32.7828001133	-40.3554041394	100.28609822
32.2778925155	-40.7128725078	186.923097343
31.7684127145	-41.0674187914	371.996676623
31.2543836286	-41.419100286	368
30.7358339057	-41.7678024002	368
30.2127807345	-42.1133532464	368.000318633
29.6852584925	-42.455695529	366.578789853
29.1532958276	-42.7947719521	375.384831095
28.6169328469	-43.1304106285	367.99932752
28.0762096573	-43.4626688539	370.702192465
27.5311720955	-43.7913174452	369.742309641
26.9818659982	-44.1163564024	367.989477313
26.4283372019	-44.4376138381	367.113042089
25.8706544616	-44.7551470482	367.939281252
25.3088636139	-45.0687841452	374.799910595
24.7430391433	-45.3785251293	130.232630808
24.1732440752	-45.684198113	151
23.5995528941	-45.9858030963	151
23.0220343549	-46.2832827836	151
22.4407801309	-46.5765798789	151
21.8558647066	-46.8655797908	151
21.2673854848	-47.1502825192	151
20.6754284091	-47.4305734726	151
20.0800908825	-47.7064526509	150.998575178
19.4814703078	-47.9779200542	150.929384884
18.8796812764	-48.244861091	151
18.2748211912	-48.5072184654	151
17.6670103734	-48.7649921774	151
17.0563634145	-49.0181822271	151
16.4429949061	-49.2666740228	151
15.8270308989	-49.5105248604	151
15.2086031731	-49.7496201483	151
14.5878377796	-49.9840744781	151
13.9648664985	-50.2137159624	151
13.3398268398	-50.4386591928	151
12.7128563133	-50.6587895777	151
12.0840981585	-50.8741644128	151
11.4537013444	-51.0847836983	151
10.8218091105	-51.2905901383	151
10.1885646961	-51.4916410287	151
9.55412852959	-51.6879363693	151
8.91864385027	-51.8794761602	151
8.28227681595	-52.0662031056	151
7.64517066608	-52.2482317971	151
7.00748582883	-52.4255049389	151
6.3693827324	-52.5980798268	151
5.73101607537	-52.7660137566	151
5.09254685891	-52.9292494324	151
4.45413207343	-53.0878441501	151
3.81593042825	-53.2418552054	151
3.17810005972	-53.3912825984	151
2.54079853124	-53.5361836248	151
1.90418226028	-53.6766155804	151
1.26840823728	-53.8125211694	151
0.633629441973	-53.9440722792	151
0	-54.0712116139	151
58.7829487661	-13.4585879963	0.60345693737
58.5533072818	-13.7829966999	2.09317207962
58.3210874875	-14.1097545305	3.51993635213
58.0864039746	-14.4389760796	4.95693069693
57.8491421516	-14.7704894598	6.40293977832
57.6092447228	-15.1044092628	7.858997041
57.3667689839	-15.4406781928	9.32478222212
57.1215716955	-15.7792389539	10.8002343983
56.8736929646	-16.120148842	12.2853321478
56.6230754954	-16.4632932655	13.7796179033
56.3696849105	-16.8087295202	15.2695220966
56.1134811028	-17.1564576061	16.7197681068
55.8544296949	-17.5063629316	18.1769059465
55.5924963093	-17.8584454967	19.6423698681
55.3276408389	-18.2127053014	21.1161877727
55.0598231767	-18.56908505	22.5980537772
54.7890089453	-18.9275847424	24.0901009876
54.515152308	-19.2881470829	25.3940379847
54.2382303464	-19.6507147756	26.3846605948
53.9581914945	-20.0152878207	27.3869324125
53.6749956451	-20.3818089222	28.3945008389
53.3886141503	-20.7502207845	29.4073395704
53.098995444	-21.1205234075	30.4257108067
52.8061051487	-21.4926021996	31.4495049855
52.5099031574	-21.8665144567	32.4790425707
52.2103493629	-22.2420882915	33.5141701656
51.9074036584	-22.6193237038	34.5567765651
51.601020207	-22.9981633979	35.6090714765
51.2911646314	-23.3785500781	36.6732598449
50.9777968245	-23.7604264485	37.7442213183
50.6608652201	-24.1437925093	38.8216380395
50.3403411704	-24.5284763729	40.0624523241
50.016173109	-24.9144207437	50.8229480147
49.6883266587	-25.3016829174	100.342496835
49.3567559826	-25.690033711	100
49.0214267034	-26.0795304201	100
48.6822929845	-26.4700011575	100
48.3393089892	-26.8614459231	100
47.9924460696	-27.2537501255	100
47.6416526595	-27.6467991729	100
47.2868943815	-28.0405930655	100
46.9281253989	-28.4349599159	100
46.5653170639	-28.8298997241	100
46.1984178102	-29.2252406027	100
45.8273932604	-29.6209825518	100
45.4522147666	-30.016953684	100
45.0728250329	-30.4130967036	100
44.6892068708	-30.8093543147	100
44.3013087139	-31.20555463	100
43.909107644	-31.6016403538	100
43.5125578244	-31.9974968945	100
43.1116306072	-32.3930669562	100
42.7062916151	-32.7881786517	100
42.2965064704	-33.182831981	100
41.882252255	-33.576797761	100
41.4634945912	-33.9700759915	100
41.0402048314	-34.3624947854	100
40.6123543274	-34.7539968468	100
40.1799201611	-35.1444102884	100
39.7428736846	-35.5336778145	100
39.301197709	-35.9217421291	100
38.8548750458	-36.3083740493	100
38.4038770469	-36.6935162791	100
37.9481922533	-37.077111523	100
37.4878034762	-37.4589878934	100
37.022704986	-37.8390880947	100
36.5528738644	-38.2172402395	100
36.078315841	-38.5934443278	100
35.5990137271	-38.9674138807	100
35.1149675226	-39.3392061939	100
34.6261772276	-39.708706676	100
34.1326485716	-40.0756861438	100
33.6343815546	-40.4401445973	100
33.1313876358	-40.8019674449	100
32.6236725448	-41.1609827993	99.9969294162
32.1112591999	-41.5171906606	193.00785088
31.5941533307	-41.8704191413	368.00041857
31.0723893145	-42.2206109456	368
30.5459786107	-42.5676514822	368
30.0149555966	-42.9114261592	368
29.4793546497	-43.2519349769	368
28.9392044179	-43.588948752	368
28.3945450083	-43.9224674845	368
27.8454222574	-44.252376583	368
27.2918877315	-44.5786187515	368
26.7339815377	-44.9011366944	368
26.1717667012	-45.2197585243	368
25.6053005179	-45.5344269453	368.56904473
25.0346402835	-45.8451992534	155.490282051
24.4598662122	-46.1518462654	151.000582239
23.8810413292	-46.4543106854	151
23.2982458488	-46.7526498094	151
22.7115599849	-47.0466917498	151
22.1210696812	-47.3364365068	151
21.5268608814	-47.6217694888	151
20.9290309884	-47.9026906957	151
20.327677405	-48.1791428319	151.025478088
19.7228975339	-48.4510686015	147.160235576
19.1148059668	-48.7183534129	151
18.5035115656	-48.981054562	151
17.8891231923	-49.2391147529	151
17.2717668976	-49.4925339857	151
16.6515630027	-49.741140373	151
16.0286375582	-49.9850485064	151
15.403116615	-50.2242010901	151
14.7751434124	-50.4585408283	151
14.1448440011	-50.688067721	151
13.5123730798	-50.9127817682	151
12.8778566991	-51.1326256742	151
12.2414552874	-51.3476567347	151
11.6033178134	-51.557817654	151
10.9635875169	-51.7631657278	151
10.3224190962	-51.9636436603	151
9.67997870929	-52.1592514515	151
9.03641532506	-52.3500463973	151
8.39188937174	-52.5359712018	151
7.74656700709	-52.7171404567	151
7.10060865928	-52.893496866	151
6.45418048608	-53.0650977256	151
5.80743718609	-53.2319430356	151
5.16055293848	-53.3940327958	151
4.5136887444	-53.5514243022	151
3.86701018864	-53.7041748503	151
3.2206817101	-53.8522271446	151
2.5748671747	-53.9957530723	151.950419835
1.92973044837	-54.1346380418	150.84077701
1.28543310521	-54.2690539406	148.74479701
0.642136719315	-54.3990007685	149.759281735
0	-54.5244785256	150.247383049
59.1238013584	-13.7695321917	0.897224135675
58.8955349729	-14.0954305856	2.33488875766
58.6648048688	-14.4236781064	3.75332697607
58.4314964546	-14.7543893458	5.18199731091
58.1956670261	-15.0874497121	6.61960609852
57.9572019918	-15.4229165011	8.06719090195
57.7161013516	-15.7607324172	9.52449340507
57.4723078098	-16.1008974601	10.9914307107
57.225798448	-16.4434116301	12.4679427459
56.9765503479	-16.7882176312	13.9538275295
56.7245119434	-17.1353154635	15.4300457506
56.469648857	-17.4846478311	16.8697806064
56.2119267112	-17.8362147342	18.3186005632
55.9513053989	-18.1900161727	19.7758259516
55.6877448132	-18.5459375551	21.2411346468
55.4212048469	-18.904036177	22.7145884569
55.1516511226	-19.2643120386	24.200146083
54.8790435332	-19.6265932525	25.4620049106
54.6033419718	-19.9909371144	26.471474549
54.3245063312	-20.3572863286	27.4864214906
54.0424965044	-20.7255835993	28.5067965721
53.7572723844	-21.0958289265	29.5327437192
53.4687881346	-21.4679077187	30.5642227255
53.1770093774	-21.8418772716	31.6014973454
52.8818902763	-22.2175656978	32.6444679184
52.5833907242	-22.5950302933	33.6934062456
52.2814706141	-22.9741564663	34.7492679142
51.9760841093	-23.3548869212	35.8044687231
51.6671853732	-23.7371643621	36.8655827147
51.3547457579	-24.120988789	37.9329102396
51.0387079677	-24.5062456105	39.0098824241
50.719037625	-24.8928775306	41.5926204443
50.3956888934	-25.2807699579	49.1921751888
50.0686216656	-25.6699801882	99.8939236955
49.7377901051	-26.060336334	100
49.4031483753	-26.4517810996	100
49.0646620987	-26.8442571893	100
48.7222854386	-27.2377073072	100
48.3759668289	-27.6320168618	100
48.0256776217	-28.0270712615	100
47.6713662508	-28.4228705064	100
47.3129926091	-28.8193000049	100
46.9505165896	-29.2163024611	100
46.5838980852	-29.6137059878	100
46.2130912593	-30.0114532892	100
45.8380617345	-30.4094870695	100
45.4587636742	-30.8076927371	100
45.0751569712	-31.2059557005	100
44.6872129777	-31.6042186639	100
44.294885857	-32.0023670357	100
43.8981355022	-32.4002862244	100
43.4969332653	-32.7978616385	100
43.0912390393	-33.1950359821	100
42.6810184467	-33.5916946636	100
42.2662371101	-33.9877230916	100
41.8468663815	-34.3830066745	100
41.4228718836	-34.7774308207	100
40.9942306979	-35.1709382344	100
40.560908447	-35.5633570282	100
40.122876483	-35.9546299065	100
39.6801118877	-36.3446422777	100
39.2325917427	-36.7332795501	100
38.7802988592	-37.1203698365	100
38.3232045894	-37.5058558411	100
37.8613032037	-37.889680268	100
37.3945660542	-38.27167123	100
36.9229931409	-38.6517141356	100
36.4465615455	-39.029694393	100
35.965271268	-39.4055547066	100
35.4791108493	-39.779123189	100
34.9880802893	-40.1503425445	100
34.492179588	-40.5190981814	100
33.9914087455	-40.8852755083	99.9985286865
33.4857792209	-41.2487599335	99.9594050561
32.9752910141	-41.6094368656	99.9801948431
32.459961314	-41.9672490086	100.926841449
31.9398015797	-42.3220817712	311.511090193
31.4148404591	-42.6738205616	367.991666107
30.8850894113	-43.0223507884	368
30.3505828138	-43.3676151557	368
29.8113378553	-43.7094990721	368
29.2674061021	-44.0478879459	368
28.7188104724	-44.3827817771	368
28.1656025325	-44.7140086785	368
27.6078166598	-45.0414540584	368
27.0455158796	-45.3651179169	368
26.4787460287	-45.6848856623	367.935659163
25.9075758619	-46.000699999	259.153303721
25.3320512158	-46.3124463354	150.615553112
24.7522580342	-46.6200673756	151
24.1682593424	-46.9235058239	151
23.5801296248	-47.2227043845	151
22.9879548252	-47.5175484659	151
22.3918266169	-47.808038068	151
21.7918194842	-48.0940585993	151
21.1880422893	-48.3756100598	151
20.5805924349	-48.652577858	151
19.9695673239	-48.9249619938	115.117733823
19.3550815477	-49.1927624673	153.14579798
18.7372439685	-49.455807391	151
18.1161749073	-49.7141540608	151
17.4920004149	-49.9677451809	151
16.8648350828	-50.2165807514	151
16.2348221504	-50.4605461805	151
15.6020819389	-50.6996987642	151
14.9667634174	-50.9339812067	151
14.3290040956	-51.1633935078	151
13.6889414835	-51.387878372	151
13.0467360093	-51.6074930948	151
12.4025309123	-51.8221230849	151
11.7564808912	-52.0318829337	151
11.1087463743	-52.2367153454	151
10.45948206	-52.4366203202	151
9.80885983572	-52.6315978579	151
9.15702867051	-52.8217052543	151
8.50416618127	-53.0068852137	151
7.85043852576	-53.1871950318	151
7.19600613217	-53.3625774129	151
6.54105234697	-53.5332042443	151
5.88573759837	-53.6989609344	151
5.23023262778	-53.8599047791	151
4.5747139062	-54.016093074	151
3.9193516021	-54.1675258193	151.080724716
3.26431702986	-54.3142603106	143.038121844
2.60978035794	-54.4563538438	201.108089614
1.95591232777	-54.5938064188	363.544959545
1.30288081598	-54.7266753315	258.599130301
0.650854845126	-54.8549605819	358.040180951
0	-54.9787767614	382.087676699
59.4662582326	-14.0806482745	1.16671072148
59.2394815373	-14.4080363586	2.57398330548
59.0102411235	-14.7378308655	3.98445118532
58.7784223995	-15.0700317951	5.40468341918
58.5440253656	-15.4046391475	6.83413583681
58.3069927257	-15.7416529226	8.27344789394
58.06732448	-16.0810158246	9.72232672422
57.8249633327	-16.4227851494	11.1808600081
57.5799092837	-16.7668463054	12.6486121232
57.3320477415	-17.1132565883	14.1259354205
57.0814245428	-17.4620159982	15.5876517196
56.8279537438	-17.8129526478	17.0182600329
56.5716009671	-18.1662384242	18.4584085667
56.3123432944	-18.5216441445	19.9078022124
56.0501291594	-18.879341696	21.3650204243
55.7849241848	-19.2391591914	22.8301210259
55.5166825338	-19.6010966306	24.3074367777
55.2453755587	-19.9650967178	25.5450645215
54.9709516931	-20.3312167489	26.5605448672
54.6933708301	-20.6993421323	27.5885339839
54.4125985922	-21.0694155722	28.6220899409
54.1285834132	-21.4414370685	29.6614028172
53.8412966451	-21.8153493256	30.7065086173
53.5506809923	-22.1911523435	31.757563072
53.2567020772	-22.5686742347	32.814474621
52.9593197927	-22.9480295908	33.877602823
52.6584825728	-23.3289892288	34.9647577875
52.3541503104	-23.7116104444	35.9991462265
52.0462771687	-24.0958359418	37.0566833797
51.7348287705	-24.4815511295	38.1203172465
51.4197478198	-24.8686987117	39.1919075418
51.1009999392	-25.2572786883	44.6365058828
50.7785335625	-25.6471764679	69.190230479
50.4523085827	-26.0382774589	99.9964121385
50.1222734335	-26.430638957	100
49.7883994672	-26.8240317791	100
49.4506236582	-27.2185132211	100
49.1089116292	-27.6139686913	100
48.7632175435	-28.0102835982	100
48.4134955645	-28.4073433502	100
48.0596998556	-28.8052052431	100
47.7017903097	-29.2036400938	100
47.3397210902	-29.6026479024	100
46.9734463605	-30.0020567814	100
46.6029317431	-30.4018667308	100
46.2281199423	-30.8019631591	100
45.8489823101	-31.202174179	100
45.4654672804	-31.6024997905	100
45.0775404756	-32.002825402	100
44.6851617887	-32.4030364219	100
44.2882853832	-32.8030182586	100
43.8868768815	-33.2026563207	100
43.4808961766	-33.6018360166	100
43.0703088911	-34.0005573462	100
42.6550749178	-34.3985911265	100
42.2351598793	-34.7959373574	100
41.8105351278	-35.1924241517	100
41.3811605561	-35.5878796219	100
40.947013246	-35.9823610638	100
40.5080645495	-36.3755819986	100
40.0642743598	-36.767599722	100
39.6156312174	-37.158185051	100
39.1620950155	-37.5472233939	100
38.7036600245	-37.934657455	100
38.2402975964	-38.3204299384	100
37.771984813	-38.7042543654	100
37.2987159446	-39.0861880316	100
36.820468073	-39.4660590498	100
36.3372354686	-39.8437528283	100
35.8490124018	-40.2191547757	100.015495219
35.3557874135	-40.5921503003	92.5433907172
34.857554774	-40.9626821064	101.220698399
34.3543202129	-41.3305783067	48.3570249068
33.8460894599	-41.6957243095	151.384499929
33.3328567853	-42.0581201149	286.808424373
32.8146451075	-42.4175365398	336.536931062
32.2914601561	-42.7739735842	350.948005502
31.7633248493	-43.1272593607	368.001267311
31.2302506462	-43.4773365735	367.980120429
30.6922661949	-43.8240906311	368
30.1494001432	-44.1674069419	368.206383697
29.6016811389	-44.5072282102	368
29.0491492892	-44.8434398444	368
28.491844701	-45.1759845487	368
27.9298132111	-45.5046904358	368
27.3630949263	-45.8295575056	368
26.7917586017	-46.1505284624	368.773408101
26.2158443444	-46.4674314189	138.304995947
25.6354323683	-46.7802090793	151.000004438
25.0505799694	-47.0888614435	151
24.4613559025	-47.3932739201	151
23.8678461112	-47.6933319174	151
23.2701308098	-47.9890354355	151
22.6682959417	-48.2802698827	151
22.0624274509	-48.5669779634	151
21.4526284695	-48.8491596775	151
20.8389964005	-49.1267577293	151
20.2216343762	-49.3996575271	154.97925701
19.6006627179	-49.667859071	158.023176167
18.9761845578	-49.9313050652	151
18.3483316763	-50.1899955097	151
17.717218665	-50.4438158129	151
17.0829773041	-50.6928232707	151
16.4457451035	-50.9369032914	151
15.8056538435	-51.1760558751	151
15.1628467636	-51.4103383175	151
14.5174728327	-51.6395787314	151
13.86968102	-51.8639490039	151
13.2196145648	-52.0832772479	151
12.5674453545	-52.2976207591	151
11.9133166285	-52.5069222416	151
11.2574060038	-52.7112962872	151
10.5998681789	-52.9106283041	151
9.9408750413	-53.105032884	151
9.28059274861	-53.2943954353	151
8.6191989178	-53.4787732537	151
7.95686543621	-53.6582236352	151
7.29376419117	-53.8327465796	151
6.63007852918	-54.0023420869	151
5.96598033758	-54.1670101572	151
5.3016483792	-54.3268080863	151
4.63726313574	-54.4817931699	152.01328087
3.97300337004	-54.631965408	148.097042002
3.3090455531	-54.7773820964	321.301472477
2.64556959366	-54.9179859393	367.999051581
1.98275138977	-55.0539488241	367.611408384
1.32076741243	-55.1852707507	367.988277695
0.659792413772	-55.3119517193	367.976219229
0	-55.4341063212	368
59.8103766844	-14.3919362446	1.4187638611
59.5851469751	-14.7207567232	2.81044330509
59.3573962515	-15.0520409204	4.21294705087
59.1270672179	-15.385788836	5.62509886638
58.8941598742	-15.7219431744	7.04648948449
58.6586742204	-16.0604466398	8.47731911593
58.4204383691	-16.4014138237	9.91813358018
58.1795669121	-16.7447301345	11.3682173152
57.9360025534	-17.0903955723	12.8275047604
57.6896307015	-17.4384101371	14.2966919032
57.4403940606	-17.7887738288	15.7420038492
57.1883785744	-18.1413720559	17.1652903684
56.9334581922	-18.4962621142	18.597815347
56.6756042661	-18.8533867079	20.0385829925
56.4147881481	-19.212745837	21.4875132064
56.1509640018	-19.5742822058	22.9444121842
55.8840974495	-19.9379385183	24.4108691093
55.6141311956	-20.303657479	25.6187248905
55.3410423217	-20.6715536792	26.6520815553
55.0647792617	-21.041397936	27.693395386
54.7852961788	-21.4133048408	28.740650211
54.502552966	-21.7871025063	29.7936956092
54.216515246	-22.1628482284	30.8528507611
53.9271257228	-22.5404274154	31.9179617965
53.6343442895	-22.9197827715	32.9892634642
53.3381365686	-23.3009715926	34.0667601256
53.0384452643	-23.6838219913	35.1548084326
52.7352302695	-24.0683339677	36.192623305
52.4284457477	-24.45439293	37.2464430885
52.1180458622	-24.8420561742	38.3065196765
51.8039905059	-25.2310945171	39.2225483238
51.4862223832	-25.6216225503	48.3807229422
51.1647071164	-26.0134110906	95.0918385116
50.8393931395	-26.4065174338	100
50.5102288862	-26.8008269884	100
50.177179979	-27.1962251628	100
49.8401891223	-27.5926546613	100
49.4992162088	-27.9901154838	100
49.1542096725	-28.3883784472	100
48.8051294062	-28.7875008472	100
48.4519238438	-29.1873680925	100
48.0945471487	-29.5878082955	100
47.7329534842	-29.9888214563	100
47.3671027432	-30.3902929833	100
46.9969433597	-30.7921655808	100
46.6224294969	-31.1942673615	100
46.2435210478	-31.5965983252	100
45.8601721758	-31.998929289	100
45.4723427739	-32.4013175485	100
45.0799812758	-32.8035339207	100
44.6830475745	-33.2055784055	100
44.2815072925	-33.6072791157	100
43.8753145932	-34.0085214596	100
43.4644293696	-34.4093054373	100
43.0488172442	-34.8094018656	100
42.6284323803	-35.2087534488	100
42.2032461301	-35.6072455953	100
41.7732183866	-36.0047637136	100
41.3383147722	-36.4011932121	100
40.898506639	-36.7964767949	100
40.4537653393	-37.1904425749	100
40.0040564955	-37.5829759603	100
39.5493571893	-37.9740196555	100
39.0896330432	-38.363401773	100
38.6248725981	-38.7510650172	100
38.1550472061	-39.1368375007	100
37.6801396784	-39.5206619277	100
37.2001328264	-39.9024237065	100
36.7150151908	-40.28195095	100
36.2247753126	-40.6591863624	99.4461515725
35.7294017325	-41.0339580562	354.760962927
35.228888721	-41.4062660314	367.141208705
34.7232305485	-41.7758811051	368.32993443
34.2124386741	-42.1428032771	368.002271172
33.6965073683	-42.5068606601	368.004293344
33.1754423607	-42.8679386626	368.000005077
32.64926084	-43.2259799888	368
32.1179685357	-43.5808700471	368.198291216
31.5815940958	-43.9324942459	385.71768999
31.040154709	-44.2807379938	370.775009575
30.4936732936	-44.6255439949	41.0319642976
29.942184227	-44.9667976577	364.684464266
29.3857161572	-45.3043843906	368
28.8243149208	-45.6382468978	368
28.2580206248	-45.9682705878	368.002889929
27.6868791059	-46.2943981648	368
27.1109476598	-46.6165150372	368.363489807
26.5302778528	-46.9345639093	136.368679127
25.9449384397	-47.2484301895	151
25.3549924459	-47.5581138777	151
24.7605086264	-47.8634430868	151
24.1615671953	-48.1644178166	151
23.5582540962	-48.4609807713	151
22.9506495432	-48.7530173595	151
22.3388509391	-49.0404702853	151
21.7229556868	-49.3233395488	151
21.1030611891	-49.6015105583	151
20.479276308	-49.8749833139	150.745791584
19.851715635	-50.1436432241	156.534580765
19.2204994912	-50.4074902887	151
18.5857481979	-50.6665245079	151
17.9475820761	-50.92063129	151
17.3061443653	-51.1698106351	151
16.6615611162	-51.4140052474	151
16.0139812978	-51.6532724227	151
15.3635481496	-51.8874975693	151
14.7104106407	-52.1166806874	151
14.0547234695	-52.3408217768	151
13.3966470643	-52.5599208377	151
12.7363361237	-52.7739205742	151
12.0739625351	-52.982878282	151
11.4096924562	-53.1867939613	151
10.7436920447	-53.3856103162	151
10.0761389176	-53.5793273468	151
9.40721069176	-53.7680023487	151
8.73708498415	-53.9516353221	151
8.06594514125	-54.1302262668	151
7.39396877996	-54.3038324787	151
6.72133924679	-54.4724539578	151
6.04823988823	-54.6360334083	151.006157092
5.37486550992	-54.7947427176	144.906411036
4.70139430175	-54.948467294	183.376495885
4.02801362091	-55.097379025	366.773581521
3.35490967868	-55.2414206147	368.002258968
2.6822681134	-55.3806493589	368
2.01027341746	-55.5151225534	368
1.33910951033	-55.6448401982	368
0.668958019621	-55.7699168849	368
0	-55.8903526134	368
60.1561567137	-14.7033388062	1.66046454327
59.9324739905	-15.0336489751	3.04472416203
59.706270253	-15.3664228625	4.43933031295
59.4774882054	-15.7016031727	5.84314862819
59.2461278477	-16.0393044971	7.256534552
59.0121318842	-16.3793549486	8.67936929445
58.7755003148	-16.7218691185	10.1118085725
58.536118548	-17.0667324154	11.5536198146
58.2940438795	-17.414002135	13.0046909109
58.0491617179	-17.7636209816	14.465727478
57.8014720631	-18.1155889551	15.8949088866
57.5509176193	-18.4697914641	17.3108656705
57.2974983865	-18.8263431	18.7353173614
57.0410825844	-19.1851292713	20.1680335354
56.7817160497	-19.546149978	21.6087961311
56.5193300274	-19.9093479244	23.0574384964
56.2538786809	-20.2747231103	24.5219443587
55.9853219032	-20.6422182401	25.6967266194
55.7136138576	-21.011776018	26.7460187031
55.4387201667	-21.3834537397	27.8012489293
55.1605835346	-21.7570795179	28.8623974903
54.8791753135	-22.1326533526	29.9295779052
54.5944382076	-22.5101752438	31.0030853592
54.3063378395	-22.8895878957	32.0828599119
54.0148169134	-23.2708340126	33.1690439166
53.7198410517	-23.6537990029	34.2616505618
53.4213586883	-24.0385401623	35.3409094757
53.1193239866	-24.4248856036	36.3847669626
52.81369111	-24.8128926224	37.4350955128
52.5044084921	-25.2023893316	38.4914214478
52.1914360261	-25.593375731	39.3960519323
51.8747221457	-25.9857945248	52.3396534821
51.5542210143	-26.3795311216	99.9460883512
51.2298867952	-26.7745855214	100
50.9016621927	-27.1708431325	100
50.5695070997	-27.5681893634	100
50.2333756796	-27.9666242142	100
49.893204907	-28.3660330931	100
49.5489661341	-28.7663014088	100
49.2005963355	-29.1674291612	100
48.8480496746	-29.5693017587	100
48.4912803148	-29.9718046098	100
48.1302424193	-30.3748231229	100
47.7648844221	-30.778357298	100
47.3951604865	-31.1822352478	100
47.0210190462	-31.5863996765	100
46.6424199944	-31.9907359925	100
46.2593060351	-32.3951296043	100
45.8716427909	-32.7995805119	100
45.4793786956	-33.2038595321	100
45.0824736422	-33.6079093692	100
44.6808760644	-34.0116727275	100
44.2745458553	-34.4149777195	100
43.8634371781	-34.8177670494	100
43.4475156555	-35.2199261258	100
43.0267411803	-35.6212830613	100
42.6010621864	-36.0218378559	100
42.1704557555	-36.4213613265	100
41.7348760509	-36.819853473	100
41.2942886952	-37.2171424081	100.003389372
40.8486593109	-37.6130562445	100.000076756
40.3979592501	-38.0075949823	100.000713994
39.9421541353	-38.4006440297	100
39.4812153187	-38.7919742038	100
39.0151198819	-39.1815855045	100
38.5438449067	-39.5693060445	100
38.0673674747	-39.9550212321	100
37.585658938	-40.338616476	100
37.0987135671	-40.7200344802	100.01178206
36.6065084436	-41.0991033575	153.925243759
36.109037838	-41.4757085162	224.75668695
35.6062960206	-41.8497926606	368.000146355
35.0982658029	-42.2211839034	368
34.5849529142	-42.5898249488	368
34.0663516251	-42.9556012052	368
33.5424791243	-43.3183407853	368
33.0133296822	-43.6780436891	368
32.4789204875	-44.0345380293	368
31.9392629994	-44.3877092142	368.010325244
31.3943858658	-44.7374999481	374.967327551
30.8443062754	-45.0837383437	97.7476514214
30.2890528762	-45.426424401	90.4100701964
29.7286600455	-45.7654435283	384.091747325
29.1631621609	-46.1006811343	368.00217207
28.5926050589	-46.4320226272	327.736991821
28.0170288466	-46.7594107113	367.987974116
27.4364850903	-47.0827307951	368
26.8510368152	-47.4019255828	357.619370122
26.2607413172	-47.7169377786	135.814302053
25.6656673512	-48.0276527909	151
25.0658836721	-48.3340133239	151
24.4614647644	-48.6359047862	151.000012729
23.8524965719	-48.9333271776	151
23.2390707677	-49.2262232025	150.997147726
22.6212675659	-49.5144209734	151
21.9992015582	-49.7979777863	151
21.3729644177	-50.0768363451	151
20.7426650064	-50.3508247628	151.003328148
20.1084293751	-50.6200003349	98.4312276404
19.4703606561	-50.8843057658	152.867882699
18.8286020889	-51.1436837597	151
18.1832682651	-51.3980770207	151
17.5345024241	-51.6474855489	151
16.8824420758	-51.8918520486	151
16.2272304596	-52.1311192238	151
15.5690280037	-52.3653443705	151
14.907972218	-52.5944701927	151
14.2442349898	-52.8184966906	151
13.5779710177	-53.0373665684	151
12.9093579187	-53.2510798259	151
12.2385503913	-53.4596937592	151
11.5657317821	-53.6630937764	151
10.8910854375	-53.8613944693	151
10.2147775153	-54.0545385421	151
9.53700282109	-54.2425259946	151
8.85793897188	-54.4254141228	151
8.1777750437	-54.6031456309	151
7.49670584221	-54.7758351103	151
6.81491471389	-54.9434252654	150.656679412
6.13260219398	-55.1060306877	140.25108005
5.4499539208	-55.2635367856	305.505581291
4.76716699184	-55.4161154464	367.966387344
4.08443563978	-55.5637093744	368
3.40195237845	-55.7063758654	368
2.71991086758	-55.8441722152	368
2.03850419394	-55.9771557194	368
1.35792372545	-56.1053263782	368
0.678359684081	-56.2287414872	368
0	-56.3474583424	368
60.5034837291	-15.0147413679	1.90029802676
60.2814052877	-15.3465412271	3.27660636158
60.056805832	-15.680747509	4.66320448289
59.8296280663	-16.0174748051	6.05909893992
59.5998719904	-16.3566658199	7.46441850837
59.3674803087	-16.6982632573	8.87921134747
59.1323957254	-17.0423244133	10.3035835478
58.8946182404	-17.3887346962	11.7371042567
58.6540332622	-17.7375514019	13.1799755093
58.4107553824	-18.0887745303	14.6340444826
58.1646127136	-18.4423467857	16.0469264269
57.9155479601	-18.7982108723	17.455124535
57.6636184176	-19.15636679	18.8716080841
57.4087667903	-19.5168145389	20.2962689814
57.150901405	-19.8794968232	21.7289507327
56.8899993434	-20.2443563472	23.1694633241
56.6260204985	-20.6114504065	24.6218317312
56.3589247631	-20.9806071139	25.7790865386
56.0886605711	-21.3519410609	26.8427041596
55.8151878155	-21.725337656	27.9120601474
55.5384606596	-22.1007396034	28.9875974151
55.2584389964	-22.4780896073	30.0694284067
54.9750712597	-22.8573876676	31.1576629216
54.6883116128	-23.2386337845	32.2525341725
54.3981142191	-23.6216560706	33.3539022946
54.1044332421	-24.0064545258	34.462781934
53.807222845	-24.3930291502	35.5351735528
53.5064314617	-24.7812653521	36.5757030574
53.2020132556	-25.1711058359	37.6224016245
52.8939166604	-25.5624933058	38.6751659744
52.5821015692	-25.9554277617	39.9025305372
52.2665049565	-26.3497373163	71.0070116686
51.9470867152	-26.7454219696	99.9384545757
51.6238010089	-27.1423671301	100
51.2965848121	-27.5405727977	100
50.9653980178	-27.9399243809	100
50.6301890598	-28.3403072881	100
50.2909063718	-28.7416642236	100
49.9474983877	-29.1439951874	100
49.5999135413	-29.5470709963	100
49.2481059959	-29.950948946	100
48.8920184558	-30.3554571494	100
48.531610814	-30.7604810148	100
48.166820045	-31.1660205422	100
47.7976060418	-31.57196114	100
47.4239172382	-31.978130921	100
47.0457020681	-32.3845298851	100
46.6629089651	-32.7909861449	100
46.2754920928	-33.1974424048	100
45.8834056144	-33.6037840731	100
45.4865979638	-34.0098965583	100
45.0850233044	-34.4157225646	100
44.6786357995	-34.8210902047	100
44.2673896124	-35.2258848869	100
43.8512389067	-35.6301066114	100
43.4301435751	-36.0335261949	100
43.0040577812	-36.4360863418	100
42.5729414178	-36.8376724604	100
42.1367601076	-37.2381699592	100.339037622
41.6954622842	-37.6374642466	113.201152986
41.2490250294	-38.0353834353	120.559559766
40.7974082361	-38.4319275253	93.9976948494
40.3405717973	-38.8269246293	100
39.8784927947	-39.2202601557	99.9999923681
39.4111311212	-39.6117622171	100
38.9384753177	-40.0014308135	100
38.4604852771	-40.3890940577	100
37.9771438107	-40.7745800623	100
37.4884280002	-41.1578315315	100.065702214
36.9943263864	-41.5387911694	146.920338689
36.494816051	-41.9172297931	274.878862284
35.9898912645	-42.2931474025	368.00205737
35.479534838	-42.6663148145	368
34.9637525013	-43.036732029	368
34.4425327951	-43.404169863	368
33.9158871785	-43.7686283165	368
33.3838041925	-44.1299927979	368
32.8463124849	-44.4880914199	368
32.3034063261	-44.8428668866	368
31.755114364	-45.1942046066	368.433764639
31.2014537875	-45.5419899882	315.55997476
30.6424532442	-45.8861657358	375.902998409
30.0781413822	-46.2265599619	387.51621998
29.5085525789	-46.5631726665	367.997973009
28.9337269414	-46.8958319624	367.485523378
28.3537103062	-47.2245378494	290.543392166
27.76854851	-47.5491184404	367.714796909
27.1782988487	-47.8694591436	368
26.5830243474	-48.185617255	337.922781055
25.9827880316	-48.4974208871	143.358962454
25.3776586563	-48.8048127442	148.590101252
24.7677164355	-49.1076782347	148.962907626
24.1530473129	-49.4060173586	158.219037464
23.5337315026	-49.6997728202	144.833200843
22.9098664073	-49.988772732	151
22.28154943	-50.2730170942	151
21.6488837031	-50.5525059067	151
21.0119895476	-50.8271245779	151.017375667
20.370970096	-51.096815812	98.7404588421
19.7259571285	-51.3615796092	150.518033449
19.0770709664	-51.6213586735	151
18.4244491194	-51.8760384134	151
17.7682290975	-52.1256761248	151
17.1085541401	-52.3702145117	151
16.4455789458	-52.6096535743	151
15.779446754	-52.8438787209	151
15.1103179929	-53.0729472474	151
14.43836455	-53.2968591538	151
13.7637525828	-53.5154998484	151
13.0866425197	-53.7289839229	151
12.4072291662	-53.9371967856	151
11.7256729506	-54.1401957324	151
11.0421744081	-54.3379807633	151
10.3569111555	-54.5304945825	151
9.67007799859	-54.7178517815	151
8.98186401339	-54.8999377688	151
8.29246400555	-55.0769244317	151
7.60207851031	-55.2486971787	148.921101578
6.91090233331	-55.4153133055	154.45737309
6.21913600978	-55.5768301079	368.530086865
5.52698465861	-55.7331902902	368.010904369
4.83464595025	-55.8845657397	368
4.14232385766	-56.0308991606	368
3.45021948903	-56.1721905529	368
2.75853567142	-56.3085545081	368
2.06747236711	-56.4400483221	368
1.37723011131	-56.566614699	368
0.688007147435	-56.6883682305	368
0	-56.805423508	368
60.8524723221	-15.3262012253	2.1369222426
60.6319981626	-15.6593761832	3.50597510968
60.4090602845	-15.9951294511	4.88494866061
60.1834868005	-16.3332891418	6.27281637882
59.9553350065	-16.6739698468	7.67026482149
59.7246049024	-17.0171142703	9.07709900608
59.4911246009	-17.3626651166	10.4933538153
59.2549513978	-17.7106796813	11.9189199194
59.0160279972	-18.061043373	13.353455283
58.7742971034	-18.4138134875	14.7960882132
58.5297587165	-18.7689900247	16.1974116022
58.2822982447	-19.1264583931	17.5977765136
58.031972984	-19.4862185927	19.0062708209
57.7786683428	-19.8483279192	20.4231089772
57.5223270253	-20.2126717811	21.8478920049
57.2629719497	-20.5791928826	23.2803441553
57.0005229021	-20.9479485196	24.7189535693
56.7349340457	-21.3188813962	25.8651142571
56.4661710032	-21.6918769208	26.9420189918
56.1941822083	-22.0669923893	28.0259400001
55.9189218243	-22.4441705058	29.1163516206
55.6403440148	-22.8232966788	30.2132124712
55.3584029429	-23.2043709084	31.316712206
55.0730470427	-23.5873931944	32.4270167692
54.7842362069	-23.9722489454	33.5441494151
