84.723784828	-38.7973027113	3.29464912503e-08
84.671301894	-39.2101188027	5.04160518198e-08
84.6179595232	-39.625284021	8.18851194875e-08
84.5635858285	-40.0428556621	5.61001825349e-08
84.5082954013	-40.462833726	3.40202491514e-08
84.4519163542	-40.885103621	4.03396517961e-08
84.3945632789	-41.3097226429	3.36242412442e-08
84.336064288	-41.7365762003	3.77768996095e-08
84.2765339731	-42.1657215889	4.9584286649e-08
84.2158004468	-42.5971015128	4.18515922638e-08
84.1539783008	-43.0306013806	2.06985024725e-08
84.0908956475	-43.4663357838	4.86821128795e-08
84.0266097829	-43.9041328351	5.99664429451e-08
83.9610634111	-44.3440498302	2.94837827955e-08
83.8941992364	-44.7859721776	4.02887738119e-08
83.825959963	-45.2298998772	7.98559486836e-08
83.7563455909	-45.6757756334	5.61768729285e-08
83.6853561201	-46.1235994461	3.65265206804e-08
83.6128196633	-46.5732567237	3.43282160112e-08
83.5387935161	-47.0247474663	6.73949674497e-08
83.4631630872	-47.478014378	1.2615592967e-07
83.3859856722	-47.9330574589	9.49681166319e-08
83.3070893838	-48.3897048216	6.727431915e-08
83.226474222	-48.8480137619	4.37617683261e-08
83.1440255953	-49.3078696883	3.3032473797e-08
83.0598007994	-49.7692726007	7.92406619018e-08
82.973627947	-50.2321079076	5.88889943898e-08
82.8855070381	-50.696375609	2.43254465363e-08
82.7953807769	-51.1619611133	2.96392495334e-08
82.7030772761	-51.6288644206	7.27171016755e-08
82.6086538315	-52.0969709392	8.91125337072e-08
82.5119385557	-52.5662233734	6.02492278742e-08
82.4128741529	-53.0366217232	4.51853416537e-08
82.3113460316	-53.5079941013	5.83258545752e-08
82.2073541918	-53.9803978034	7.01436377109e-08
82.1007267461	-54.4537182379	3.89428397257e-08
81.9914063988	-54.9278408134	3.93068062432e-08
81.8792212625	-55.402708234	3.58908907923e-08
81.7641713373	-55.8783204997	4.84762072213e-08
81.6460274399	-56.3545630191	3.25041652236e-08
81.5247322747	-56.8313784962	3.70210249334e-08
81.40017125	-57.3086523395	5.34988805595e-08
81.2721724786	-57.7863845491	2.91032724176e-08
81.1406213688	-58.2644032376	2.63527834366e-08
81.0053460334	-58.7427084049	4.3168734273e-08
80.8662318807	-59.2212427554	5.56306381395e-08
80.7230497277	-59.6998916975	5.8600312241e-08
80.575627687	-60.1785979353	3.30906013502e-08
80.4238511671	-60.6572468774	4.16366395843e-08
80.267433689	-61.1357812279	6.2773774189e-08
80.1062033655	-61.614143691	6.84831068748e-08
79.9399310133	-62.0922196753	3.73320249382e-08
79.7683874495	-62.5699518849	3.95997574713e-08
79.5913434908	-63.047283024	5.05137582441e-08
79.4085126584	-63.5240985011	4.47861053611e-08
79.2196084733	-64.0003410204	2.39287719677e-08
79.0242871609	-64.4759532861	3.73909901507e-08
78.8223195382	-64.950763411	5.86156707815e-08
78.6132472387	-65.4248286907	7.56656590857e-08
78.3967837837	-65.8979199421	7.12953043605e-08
78.1725281027	-66.3700371653	5.08649443551e-08
77.9400218294	-66.8411230644	2.76604399497e-08
77.6988065977	-67.3110057522	4.79210228448e-08
77.4484240412	-67.7796852286	7.15296184052e-08
77.1883012022	-68.2470469021	6.46773673962e-08
76.9179797145	-68.7129761811	3.82588230804e-08
76.6367147329	-69.1774157699	3.22933596941e-08
76.3439905953	-69.6402510768	4.31932880493e-08
76.0389478652	-70.1014821018	5.05037988554e-08
75.7209562889	-70.560879662	3.34591195584e-08
75.389099134	-71.0184437572	7.26442347249e-08
75.0425742595	-71.4741170916	8.17375328243e-08
74.6802930456	-71.9276704823	7.32253990721e-08
74.3012814641	-72.3791039291	4.6071129253e-08
73.9042790079	-72.8283028404	5.17505074367e-08
73.4881397613	-73.2752099206	6.27140583492e-08
73.0514313298	-73.7195959865	6.87157261213e-08
72.5926640233	-74.1614037424	7.20141404899e-08
72.110176264	-74.6005758923	4.34993526204e-08
71.602134587	-75.0368832533	2.19265736786e-08
71.0665909359	-75.4703258253	4.52315471217e-08
70.5012534795	-75.9006171295	4.9740684331e-08
69.9038303865	-76.3277571658	3.62872325698e-08
69.2715141638	-76.7514594553	2.85946154029e-08
68.6013827266	-77.1716667022	5.24563863035e-08
67.8901702155	-77.5880924277	3.84839139699e-08
67.1341524048	-78.0006220402	4.36970106915e-08
66.32931859	-78.4090263566	4.97418110824e-08
65.4710851087	-78.8130188979	1.67887971818e-08
64.5544099323	-79.2124277769	3.28232409249e-08
63.5736207786	-79.6069092188	5.11408033535e-08
62.522357816	-79.9961194491	3.11477912529e-08
61.3935736639	-80.3797146929	2.81667705682e-08
60.1793615044	-80.7573511757	2.67061821536e-08
58.8708404919	-81.1284559396	2.77082722334e-08
57.4580411607	-81.4926279142	3.63168806791e-08
55.9300887718	-81.8491795501	5.60192653714e-08
54.2746418143	-82.1975378895	2.71139789015e-08
52.4782243209	-82.5368434958	3.37508702453e-08
50.5260539805	-82.866294228	2.54193887235e-08
48.4021280818	-83.1848014663	2.92031706105e-08
46.0894011305	-83.4913338867	5.18640065616e-08
43.5701572715	-83.7845163905	1.87772101367e-08
40.8265889766	-84.0629165831	4.20355738018e-08
37.8417137767	-84.3248728871	5.6157046272e-08
34.6006920648	-84.5685518373	4.19868843594e-08
31.0926089951	-84.7919480817	3.05684840543e-08
27.3126860995	-84.992998972	2.47728765559e-08
23.2648023023	-85.1695272687	7.10097811866e-08
18.9640149342	-85.3194130279	3.49565957292e-08
14.4385880035	-85.4407081931	3.35004462734e-08
9.73082298403	-85.531693891	5.19255306825e-08
4.8961306242	-85.5911669101	3.57724391919e-08
0	-85.6186688843	2.11137673544e-05
85.8086231173	-33.1179158628	4.48021194164e-08
85.7712662691	-33.4920000073	1.67410901255e-08
85.7332791673	-33.8686624618	2.02426355045e-08
85.6947191076	-34.2479032264	7.49414231881e-08
85.6555287945	-34.6297795969	1.01579870513e-07
85.6157655235	-35.0142342774	7.6489268044e-08
85.5753147031	-35.401267268	4.68413545489e-08
85.5341763334	-35.7908785687	3.86057377221e-08
85.4923504144	-36.1830108837	8.13527991402e-08
85.449836946	-36.5777215087	7.67642973944e-08
85.4066359282	-36.9749531481	4.66500965219e-08
85.3626900654	-37.3747058018	4.98443805916e-08
85.3179993573	-37.7769794697	9.09142389786e-08
85.2725065084	-38.1817168562	7.36747037003e-08
85.2262688143	-38.5889179612	4.27274303797e-08
85.1791716836	-38.9985827847	2.79125715229e-08
85.1312724119	-39.410654031	7.08104351748e-08
85.0825137035	-39.8250744042	6.780563723e-08
85.0328382627	-40.2419584959	3.64383299034e-08
84.9823033852	-40.6611344189	3.87256469816e-08
84.9307944794	-41.0826594687	3.47849718819e-08
84.8783688411	-41.5064763498	4.44980958319e-08
84.8249691746	-41.932585062	3.63371348075e-08
84.7705381841	-42.3609283097	4.92169890236e-08
84.7150758695	-42.7914487969	2.21136313233e-08
84.6585822309	-43.2242038196	4.23577406127e-08
84.6009426767	-43.6590214903	7.2055798437e-08
84.5422145027	-44.0960164007	4.05031649184e-08
84.4822831174	-44.5350166633	2.71849411372e-08
84.4211485206	-44.976079574	8.60967651608e-08
84.3588107125	-45.419147837	1.15221090849e-07
84.2952123973	-45.8641641564	8.36847404079e-08
84.2302962791	-46.3110139409	5.21415977824e-08
84.1640050622	-46.7598117818	6.02439782767e-08
84.0963387466	-47.2103857919	9.1157822737e-08
84.0271827407	-47.6627359711	1.2234526729e-07
83.9565943403	-48.116747728	8.95986319214e-08
83.8844589539	-48.5724783582	5.7410079473e-08
83.8107765815	-49.0298705661	2.47349382996e-08
83.7354326314	-49.4887524642	4.57345008324e-08
83.658369808	-49.9491813484	7.21328826414e-08
83.5795881111	-50.411042627	4.08067782417e-08
83.4989729494	-50.8743363002	2.17990205507e-08
83.4165243226	-51.339005072	4.74905792373e-08
83.3321276394	-51.804934351	7.32503444686e-08
83.2457256039	-52.2720668414	7.53039067096e-08
83.1572609203	-52.7403452474	4.09976812756e-08
83.0666189972	-53.2097695689	2.15930484599e-08
82.9737998343	-53.6802252145	6.26755795446e-08
82.8786315446	-54.1516548883	5.26833168233e-08
82.7810568321	-54.6240012946	2.32776303345e-08
82.6809611053	-55.0972071376	3.92847593239e-08
82.5783443641	-55.5711578258	5.50600248049e-08
82.4729774256	-56.045853359	3.23089172304e-08
82.3648602897	-56.5211791459	4.12942362914e-08
82.253821069	-56.9970778905	3.51285947205e-08
82.1398024677	-57.4734922972	4.26030374584e-08
82.0225753029	-57.9503650701	1.77825067634e-08
81.9021395743	-58.4275816176	5.1098096996e-08
81.7782088032	-58.9050273483	6.6619818597e-08
81.6507829896	-59.3827595579	6.87480501586e-08
81.5195756545	-59.860606359	3.99032316422e-08
81.3845295022	-60.3385104559	2.24272792621e-08
81.2454153496	-60.8164718486	3.9799446015e-08
81.1020613092	-61.2943186498	6.0419755948e-08
80.9542381981	-61.7719935636	4.98135119175e-08
80.8018314246	-62.2494392943	2.28271815554e-08
80.6445545098	-62.7265412503	3.66264480917e-08
80.4821782707	-63.2032994316	3.89649969945e-08
80.314473524	-63.6795992467	4.71921100374e-08
80.1410964952	-64.1553833998	2.92178509034e-08
79.9618752969	-64.6305372993	3.41589495498e-08
79.7764661544	-65.1049463536	4.16872574431e-08
79.5845825888	-65.5786105629	4.72838171828e-08
79.3857662339	-66.0514153354	5.75661192656e-08
79.1797879065	-66.5233033755	3.81347469188e-08
78.9661319447	-66.9942173873	3.20535775582e-08
78.7444545738	-67.4639854835	4.52387398775e-08
78.5142401317	-67.9326076642	6.67027619036e-08
78.275087548	-68.3999693376	6.37677524707e-08
78.0263665692	-68.8660132082	3.10003734348e-08
77.7675615331	-69.3306246843	2.43092000796e-08
77.4980421863	-69.7936891743	3.74738656438e-08
77.2171209793	-70.2552639741	5.11825228806e-08
76.9241103629	-70.7151199004	2.85398723337e-08
76.6182081961	-71.1731996576	4.43448281453e-08
76.298612338	-71.6294459499	6.40547691994e-08
75.9642914645	-72.0838014814	4.96601866658e-08
75.614386139	-72.5360943649	2.78436896097e-08
75.2476358543	-72.9862673046	4.53056290737e-08
74.8629519907	-73.4342630046	4.41342065875e-08
74.4589594493	-73.8799095776	5.87783948723e-08
74.0342831316	-74.3231497279	4.60910023801e-08
73.5872614598	-74.7638115682	2.64361072698e-08
73.1161755607	-75.2018950983	2.96375062206e-08
72.6190773776	-75.6372284311	3.3121127874e-08
72.0939042626	-76.069639679	2.73560515425e-08
71.5381924971	-76.4990142507	2.34973437795e-08
70.9494210668	-76.9252948503	3.04663394761e-08
70.3246105912	-77.3482522947	4.19130099977e-08
69.6604952109	-77.7677146965	3.49509999209e-08
68.9535798833	-78.1835101684	3.2714287053e-08
68.1996820164	-78.5954668231	4.27882596029e-08
67.3942752438	-79.0033554775	2.36731921479e-08
66.5323175368	-79.4070042441	4.88565661238e-08
65.6079647259	-79.8060120527	5.48227297584e-08
64.6147996839	-80.2002070157	4.90800458031e-08
63.5455458466	-80.5892453586	2.15956590916e-08
62.3918380303	-80.9726687151	4.02444545726e-08
61.1443943188	-81.3501333105	4.85863448672e-08
59.7926149927	-81.7211234829	6.3369540291e-08
58.32458253	-82.0851235701	3.99212658381e-08
56.7267636676	-82.4414460229	5.3997510263e-08
54.9840666971	-82.7893459961	6.53014317891e-08
53.0795263382	-83.127964053	2.41563509132e-08
50.9943553048	-83.4563834612	2.83006233814e-08
48.7079614937	-83.7734010093	4.03980461015e-08
46.1981714383	-84.0776415985	6.20827228888e-08
43.4417402409	-84.3676728344	2.9612939559e-08
40.4152167388	-84.641661252	1.84768204863e-08
37.0964274655	-84.8976014991	3.68955866797e-08
33.4665908643	-85.133316336	3.54261363593e-08
29.5132393737	-85.3462847485	4.36399543415e-08
25.2339092751	-85.5340430179	3.52726415998e-08
20.6401456681	-85.6939555385	2.97326328075e-08
15.7612324257	-85.8234440002	1.05029887506e-07
10.646432459	-85.9205030507	4.66499241929e-08
5.36455742623	-85.9833565209	4.32625939902e-08
0	-86.0112595655	2.16718041107e-05
86.2038494044	-33.3253265847	2.56713071902e-08
86.1700448945	-33.6988950671	2.28472675085e-08
86.1357247226	-34.0750418596	4.81317197071e-08
86.1008315928	-34.4537669622	9.2483597972e-08
86.0653655053	-34.8351276706	8.62492697542e-08
86.02932646	-35.2190093934	6.8590706049e-08
85.9927144569	-35.6054694262	4.41123980146e-08
85.955529496	-35.9944504733	6.30930883287e-08
85.9176569857	-36.3860098305	8.10763105561e-08
85.8792115177	-36.780090202	3.81823917345e-08
85.8400785003	-37.176634292	2.81546276831e-08
85.8003152293	-37.5757566921	7.17818188773e-08
85.7598644089	-37.9772855149	8.36164229866e-08
85.7187260393	-38.381335352	5.36894354783e-08
85.6768428244	-38.7878489077	2.3713183327e-08
85.6342147645	-39.1967688861	3.95767146354e-08
85.5908418594	-39.6080379914	7.39701730803e-08
85.5467241092	-40.0217708153	4.78755181274e-08
85.5017469222	-40.4378527661	3.28302883952e-08
85.4560248902	-40.8562265481	3.92923155282e-08
85.4093861257	-41.2769494571	3.14373164628e-08
85.3619452202	-41.6999641972	3.85451068447e-08
85.3135875823	-42.1252134728	3.69452502088e-08
85.2643132119	-42.5526972837	3.41900588654e-08
85.2141221091	-42.9824156301	2.30124236403e-08
85.162956978	-43.4142539202	6.19151965885e-08
85.1107605228	-43.8482121543	5.38385440999e-08
85.0575900395	-44.2842903321	2.88897731695e-08
85.0033309363	-44.7223738623	5.25092123209e-08
84.9479832132	-45.1625200405	1.0315144633e-07
84.8914895746	-45.6046142752	9.67164625329e-08
84.8339073162	-46.0486565665	6.33370151547e-08
84.7751218465	-46.4945896184	4.53557987323e-08
84.7150758695	-46.9424134311	6.35359388666e-08
84.6537693854	-47.3919561172	1.07579137094e-07
84.5912023942	-47.8433322682	1.04722758086e-07
84.5272603043	-48.2963699968	7.15623682484e-08
84.4618858199	-48.7511265988	3.80360010015e-08
84.3951362367	-49.2074301868	5.16245174784e-08
84.3268396675	-49.6653380567	8.2273937646e-08
84.2570534081	-50.1247356168	5.44285109587e-08
84.1856628668	-50.5856228672	5.66771261631e-08
84.1126680437	-51.0478852163	4.43673290594e-08
84.0379543472	-51.5114653684	5.28141964906e-08
83.9614644816	-51.9763633233	7.28978956519e-08
83.8831984468	-52.4424644897	5.66314127196e-08
83.8029843555	-52.9097688674	2.45743644303e-08
83.7208222076	-53.3781045691	2.26753956973e-08
83.6366547075	-53.8475288907	1.62133374068e-08
83.5504245594	-54.3179845363	3.54559528412e-08
83.4619598758	-54.7892996185	4.84603420262e-08
83.3712606568	-55.2614741375	3.22685854949e-08
83.2781550151	-55.7344507974	4.09538175358e-08
83.1826429507	-56.2081150066	1.80432226092e-08
83.0846098719	-56.6824667652	2.66611013459e-08
82.9839411873	-57.1573914816	3.20974828128e-08
82.8804650095	-57.63283186	2.80576505481e-08
82.7741813385	-58.1087306046	3.74565547771e-08
82.6648609912	-58.5849731239	5.04194278909e-08
82.5524466718	-59.0615594179	7.05635118876e-08
82.436766493	-59.538374895	5.77559225938e-08
82.3177631589	-60.0153622595	3.07880680364e-08
82.1951501908	-60.4924069197	3.07189890782e-08
82.0688702927	-60.9695088757	3.75800156832e-08
81.9387515774	-61.4464962402	5.7849600826e-08
81.8045648618	-61.9234263088	7.22850969609e-08
81.6661382585	-62.4001271944	4.92549238626e-08
81.5232425844	-62.876541601	5.43865496559e-08
81.3757632479	-63.352612233	3.58538001602e-08
81.2233564744	-63.8282817945	4.5764861057e-08
81.0658503766	-64.303435694	3.25969589667e-08
80.9029584754	-64.7779593399	2.9979129944e-08
80.7343942921	-65.2519100281	2.9666902142e-08
80.5598713477	-65.7251158711	4.28977286089e-08
80.3791031633	-66.1974622774	4.57437928747e-08
80.1916886685	-66.6690065428	4.62185307392e-08
79.9972840886	-67.1395767799	2.44444570896e-08
79.795545649	-67.6090583972	4.06283316555e-08
79.5859576875	-68.0775086905	6.06311087743e-08
79.3681191338	-68.5446984767	4.90526344108e-08
79.1415716216	-69.0106850515	4.59317854692e-08
78.9056848974	-69.4752965275	6.09005897936e-08
78.6600005948	-69.9384756091	5.95073068269e-08
78.4038311646	-70.4001650004	5.11944681859e-08
78.1365463532	-70.8603074057	3.29311948449e-08
77.8573440196	-71.3187309376	3.95098956575e-08
77.5655366145	-71.7754355961	4.95503918903e-08
77.2601501097	-72.2303067897	3.12456165139e-08
76.9402677727	-72.6832872225	4.42088985638e-08
76.6049155752	-73.1342050073	6.14801595568e-08
76.2528903059	-73.5831174397	3.81632258977e-08
75.8829887534	-74.0297953368	4.25705013294e-08
75.4938358189	-74.4741814027	2.54787830229e-08
75.0839418123	-74.9162183417	3.82474286187e-08
74.6515878601	-75.3557342663	4.50590522893e-08
74.1950550889	-75.7927291767	2.62490063753e-08
73.7121662592	-76.2269738896	2.50419983897e-08
73.2007441312	-76.6584111093	4.16474428438e-08
72.6582676908	-77.0869262443	6.48038187626e-08
72.0819294447	-77.5123474072	6.7234602408e-08
71.4685208292	-77.9345027106	3.53477826531e-08
70.8145468019	-78.3533348589	2.21771104396e-08
70.1160539538	-78.768557373	3.98550519718e-08
69.3685159185	-79.1800556615	3.49819394538e-08
68.5668906673	-79.5876005412	3.51622340488e-08
67.7055059181	-79.9909055331	6.01106745863e-08
66.7777153605	-80.3897987501	8.04246512805e-08
65.7761851346	-80.7838791216	2.72786846127e-08
64.6923781693	-81.1729174645	2.53258154654e-08
63.5167260695	-81.5564554126	4.09941725054e-08
62.2380561581	-81.9340345996	3.46596601663e-08
60.8436487721	-82.3051966592	5.65850790772e-08
59.319065375	-82.669311338	2.61272309848e-08
57.6475755993	-83.0257483824	4.78876658871e-08
55.8101572461	-83.3735910598	5.96750020084e-08
53.7852900206	-83.7119799336	3.5700221036e-08
51.5486232166	-84.0397117924	3.77994307632e-08
49.073101767	-84.3554688333	5.5883557969e-08
46.3291782382	-84.6576467745	4.02715722193e-08
43.2855462164	-84.9444694467	3.58341780361e-08
39.9105211354	-85.2137596104	3.65695652523e-08
36.1744237816	-85.4630535471	6.91813703587e-08
32.0532529527	-85.6895437635	1.37456476573e-08
27.5337733239	-85.8902508791	2.71930119812e-08
22.619800794	-86.0618517388	2.24513120244e-07
17.3388144188	-86.2013096661	4.60335782238e-08
11.7470156285	-86.3057598722	3.11516884154e-08
5.93041684724	-86.3729105258	6.82708724545e-08
0	-86.4016157113	2.23718944564e-05
86.5986173252	-33.5303308838	2.26353718719e-08
86.5683651537	-33.9033264084	3.81413546859e-08
86.5376546158	-34.2789002431	7.04855651012e-08
86.506428416	-34.6571096837	9.58875958262e-08
86.4746865542	-35.0378401385	1.16669045314e-07
86.4424863261	-35.4210916077	1.28258443236e-07
86.4097131402	-35.806921387	1.17586299547e-07
86.3763669965	-36.1952721805	1.21103492322e-07
86.3425624866	-36.5862012841	8.81923900158e-08
86.3081277231	-36.9795941062	5.82863536814e-08
86.2731200018	-37.3754506469	6.07074764041e-08
86.2375393227	-37.7738854976	8.14480328356e-08
86.2013283901	-38.1747267711	6.47209153187e-08
86.1644872039	-38.5780317631	3.4170428032e-08
86.1270157641	-38.9837431778	1.93219555336e-08
86.0888567749	-39.3918610153	5.97043106392e-08
86.0500102364	-39.8023852755	5.88305843926e-08
86.0105334443	-40.2153159585	3.96090373463e-08
85.9703118071	-40.6305384726	5.79887851497e-08
85.9293453247	-41.0481101137	3.3157988398e-08
85.8876339973	-41.4680308817	3.39642177195e-08
85.8451205289	-41.8901288894	2.56079311298e-08
85.8018622153	-42.3145187283	3.7601898418e-08
85.7577444651	-42.7410858067	2.90804063229e-08
85.712824574	-43.1698874206	7.20228204076e-08
85.6669879504	-43.6008089783	6.65772674108e-08
85.6202918901	-44.0337931841	3.45437281047e-08
85.5726218015	-44.4688973337	3.24272904859e-08
85.5240922762	-44.9060641314	7.00002645305e-08
85.474531427	-45.3452362814	1.04637051089e-07
85.4239392537	-45.7863564879	7.81228229451e-08
85.3723730521	-46.2293674551	4.50501004028e-08
85.3197182307	-46.674269183	4.60175225499e-08
85.2659747895	-47.1210616716	6.89236576621e-08
85.2110854328	-47.5696303294	1.10872272067e-07
85.1549928646	-48.0199178606	8.58517826414e-08
85.0977543809	-48.4719242652	5.24925477643e-08
85.03925539	-48.9255922474	2.62190995524e-08
84.9794385962	-49.3808645114	6.92083472325e-08
84.9183039995	-49.8376837615	6.75320814723e-08
84.8557370082	-50.2959927018	4.4245327789e-08
84.7917949183	-50.7557340366	5.02295944671e-08
84.7264204339	-51.2169077659	3.53315870928e-08
84.6594416676	-51.6793992981	5.39286667946e-08
84.5909159153	-52.1432086333	6.82199468575e-08
84.5207858812	-52.6082211798	3.97761565427e-08
84.4489369737	-53.0743796419	5.24822450848e-08
84.375311897	-53.5416840196	4.5330377266e-08
84.2999106512	-54.0100197214	8.5731594675e-08
84.2225613488	-54.4793294514	8.54778003477e-08
84.1433212858	-54.9495559138	9.23114249685e-08
84.0619612789	-55.420641813	5.77751115196e-08
83.9785386239	-55.8925298531	3.12524735938e-08
83.8929387293	-56.3651054425	7.39912075588e-08
83.8050470035	-56.8383685813	1.15357623769e-07
83.714748855	-57.3122619736	7.66695286907e-08
83.621986988	-57.7866137322	4.22390270391e-08
83.5266468109	-58.2614811528	2.70723710462e-08
83.4286137321	-58.7367496439	2.02052913494e-08
83.3277731602	-59.2123046138	4.31892442443e-08
83.2240105035	-59.6880887669	3.83484828625e-08
83.1172111705	-60.1641021031	2.36131908351e-08
83.0072032738	-60.6402300309	2.84448003648e-08
82.8939295177	-61.1163579586	3.45975678936e-08
82.7771034233	-61.5924858864	5.52510484238e-08
82.6566676947	-62.0684992226	6.34010875113e-08
82.532393149	-62.5443406714	4.35462322583e-08
82.4041078986	-63.0199529371	5.00815058816e-08
82.2716973522	-63.4952214282	2.99511680494e-08
82.1348177349	-63.9700888488	3.65874293153e-08
81.9933544553	-64.4444979032	1.65245725274e-08
81.8469637387	-64.9183912955	2.60462692839e-08
81.6955309934	-65.3916544343	3.14389646636e-08
81.5386551491	-65.8642873195	3.80470917896e-08
81.3761643184	-66.336060768	4.59906569884e-08
81.2076574309	-66.8070893714	2.14566047747e-08
81.0328480076	-67.2772012423	1.52523667991e-08
80.8513349781	-67.7462817892	3.50357689838e-08
80.6627745677	-68.214331012	3.63540326429e-08
80.4667084102	-68.6812916151	2.46123920104e-08
80.2627354351	-69.1469917109	4.00611592112e-08
80.0503972762	-69.6114885955	4.70778255791e-08
79.82906368	-70.0746103813	5.19898481275e-08
79.5982189843	-70.5362424768	5.08478420809e-08
79.3572329357	-70.9964421778	5.8607404649e-08
79.1054752805	-71.4550375971	4.00124660561e-08
78.8422011737	-71.9120287345	5.03593043983e-08
78.5665511784	-72.3672437027	7.03599127585e-08
78.2777231539	-72.820625206	6.22776425744e-08
77.9747430718	-73.2721159485	4.75222028654e-08
77.6565223124	-73.7216586346	3.08252503891e-08
77.3219149601	-74.1691386726	2.56162819972e-08
76.9697178034	-74.6144987668	2.15005408679e-08
76.5984984479	-75.0575670297	2.83155600964e-08
76.2066526118	-75.4983434615	3.70457653027e-08
75.7924614217	-75.9367134706	1.49087543705e-08
75.3540914127	-76.3725624653	3.45580685877e-08
74.889365345	-76.8057185585	3.50800984318e-08
74.3958767961	-77.2361817499	4.4880060823e-08
73.8709328642	-77.6637801524	4.66496956791e-08
73.3116114646	-78.0883418786	5.56353257857e-08
72.7144748505	-78.5098096327	3.91818132942e-08
72.0756842047	-78.9280115274	2.97867074588e-08
71.3909996395	-79.3427183795	5.20956251344e-08
70.6553791264	-79.7538155975	6.9474815341e-08
69.8632076788	-80.1610739983	4.60863032387e-08
69.0081827611	-80.564207103	5.81371886959e-08
68.0827986262	-80.9631003199	4.51641986732e-08
67.0785754987	-81.357295283	6.38320346645e-08
65.9857730961	-81.746562809	3.32577632184e-08
64.7929322624	-82.1303872359	3.20003089658e-08
63.4869322641	-82.5084820849	3.92771276905e-08
62.0523605367	-82.8801598066	3.0257526772e-08
60.4714553884	-83.2448474433	2.24052952971e-08
58.7233038597	-83.6017428538	3.99314946067e-08
56.7838417231	-83.9500438975	2.68190887398e-08
54.6250456131	-84.2886046586	2.44776335788e-08
52.2147840563	-84.6161073343	6.10468634545e-08
49.5166112075	-84.9309476428	5.33859807393e-08
46.49002468	-85.2314067105	5.62178858994e-08
43.0915140591	-85.5150208191	4.17319386034e-08
39.2768240844	-85.7792689542	3.36764778296e-08
35.0051257837	-86.0209425522	2.86172616103e-08
30.2456971598	-86.2364892747	2.28699722475e-07
24.9873196992	-86.421955713	5.34880995081e-08
19.2496458543	-86.5734457541	1.09621114674e-07
13.0937758442	-86.6870632848	2.93172924508e-07
6.62748875995	-86.7597143333	6.80418917532e-08
0	-86.7896227302	2.32627423901e-05
86.9928695841	-33.7328141686	2.99034245083e-08
86.9661697508	-34.1052367354	4.49767867568e-08
86.9390688471	-34.4802376123	8.45831548256e-08
86.9115095772	-34.8578167993	1.02836663228e-07
86.8835492368	-35.2379170006	1.22936264038e-07
86.8550732343	-35.6205382162	1.22478491742e-07
86.8261961615	-36.0057377419	1.47032331277e-07
86.7968034266	-36.393400986	1.33318026787e-07
86.7668950297	-36.7835852445	1.04537490982e-07
86.7365282665	-37.1762905173	7.53637359328e-08
86.7056458414	-37.5714595086	6.91808396119e-08
86.6742477542	-37.9690922184	7.40958248485e-08
86.6422767092	-38.3691886468	4.45035959108e-08
86.6097327065	-38.7716914979	3.08588135965e-08
86.5766730417	-39.1766580675	4.63919146967e-08
86.5430404191	-39.583973764	6.38449533873e-08
86.508777543	-39.9936958833	3.98801325381e-08
86.4738844132	-40.4057098338	4.69568288384e-08
86.4383610299	-40.820130207	8.5437114902e-08
86.4022073931	-41.2367851156	6.18821684212e-08
86.3654235026	-41.6557891512	3.21033789881e-08
86.327894767	-42.0770277222	2.49461472486e-08
86.2896784821	-42.5004435328	3.93428426096e-08
86.2507746478	-42.9260938788	7.36315166585e-08
86.2110686726	-43.3539214644	7.78740697354e-08
86.1706178523	-43.7838116981	4.69246250188e-08
86.1294221868	-44.2158791714	2.5912919396e-08
86.0873670846	-44.649951997	4.12924298067e-08
86.0444525458	-45.0860874707	6.43328729422e-08
86.000735866	-45.5242282966	4.90628415879e-08
85.9561024538	-45.964317179	4.62631210584e-08
85.9105523091	-46.4062968222	3.27576280398e-08
85.8640281361	-46.8501099303	4.75153904535e-08
85.8165872307	-47.2958137991	8.5568211375e-08
85.7681150012	-47.7432938371	1.00265414954e-07
85.7186114477	-48.1924927485	6.68139527353e-08
85.6680192744	-48.6433532375	3.64863057967e-08
85.6163384813	-49.0959325999	5.2638174633e-08
85.5635117726	-49.5500589483	7.66674228769e-08
85.5095391483	-50.0057322828	4.87850972774e-08
85.4543060168	-50.4628953075	3.53159243795e-08
85.3978123782	-50.9215480225	3.83494908446e-08
85.3400582325	-51.3815185404	3.46382461629e-08
85.280928988	-51.8428641571	5.46919968428e-08
85.2203673491	-52.3054702809	5.22899744104e-08
85.1583733156	-52.7693369118	3.82545661507e-08
85.0948895919	-53.2343494583	4.11493678365e-08
85.0298588822	-53.7004506247	5.38315075284e-08
84.9632238906	-54.167583115	8.68159339632e-08
84.8949273214	-54.6357469294	5.90665624468e-08
84.8248545831	-55.1047701805	7.25768400974e-08
84.7530056756	-55.5747101641	4.411437481e-08
84.6792660073	-56.0454522886	5.47991708465e-08
84.6035782826	-56.5168819624	9.2060938935e-08
84.5258852056	-56.9889991856	1.11296412527e-07
84.4460721847	-57.4616893666	7.66311078562e-08
84.3640819242	-57.9349525054	4.23581792334e-08
84.2797425368	-58.4086740104	3.54814701942e-08
84.1930540224	-58.8828538816	3.7815476922e-08
84.1039017895	-59.357262936	3.91849586431e-08
84.0121712465	-59.832015765	4.22378600408e-08
83.917690506	-60.3069404814	2.29502844055e-08
83.8204022724	-60.7820370851	2.37479494924e-08
83.7201919541	-61.2571336889	3.63416637955e-08
83.6168303678	-61.7322302926	4.609758705e-08
83.5102602179	-62.2072696005	3.04589919519e-08
83.400309617	-62.6821370211	3.49270329286e-08
83.286749382	-63.1567752586	3.62193207483e-08
83.1695222172	-63.631184313	1.90564265626e-08
83.0483416435	-64.1051350011	4.95591478992e-08
82.9230930695	-64.5787419146	6.34185228256e-08
82.7934900162	-65.0517758702	3.27529556515e-08
82.6593605964	-65.5242941639	4.1027097393e-08
82.5204183311	-65.9961249082	3.9496173284e-08
82.3763767414	-66.4672681031	5.39635086039e-08
82.2270639399	-66.9376091571	5.39413494707e-08
82.0721361521	-67.4070907745	5.33445914054e-08
81.9111923075	-67.8756556593	4.46821205798e-08
81.7440032229	-68.3431892201	4.92723268411e-08
81.5701105321	-68.8096914569	7.00154294826e-08
81.3891704603	-69.2750477782	5.91764240288e-08
81.2006673458	-69.7391435922	3.33156358933e-08
81.0042001178	-70.2020361949	4.07620634747e-08
80.7991958187	-70.6634964031	3.87280747463e-08
80.5851960822	-71.1235815126	5.70895316462e-08
80.3614560632	-71.582119636	4.06125943717e-08
80.1274028039	-72.0391107734	4.26703533688e-08
79.8823487549	-72.494497629	5.61428938679e-08
79.6253771838	-72.9481083154	5.59785525094e-08
79.3556859497	-73.4000001284	5.84534654945e-08
79.07235832	-73.8499438849	3.87938200121e-08
78.7742483792	-74.2979968807	4.13892428323e-08
78.4602675074	-74.7439872285	4.68962922503e-08
78.1290979018	-75.1879149281	2.91351383098e-08
77.7793071679	-75.6296080924	3.85580309666e-08
77.4093483196	-76.0690667213	5.98208464758e-08
77.0174451877	-76.5061762232	6.07381478462e-08
76.60159242	-76.9408220065	5.06353121643e-08
76.1596127769	-77.3728894799	3.81910605274e-08
75.6889852439	-77.8023213473	3.56840471657e-08
75.1869596238	-78.2289457216	3.5469065921e-08
74.6502700571	-78.6527053068	3.6447419352e-08
74.0754215013	-79.0734855116	4.30355788318e-08
73.4582313644	-79.4910571527	3.90960528038e-08
72.7940586883	-79.9053056386	4.54689989922e-08
72.0775176697	-80.3160590819	4.5094727305e-08
71.3023630686	-80.7230882995	3.09730781405e-08
70.4614902085	-81.1262214042	2.37772781094e-08
69.5465339055	-81.5252292127	4.49762071966e-08
68.5478111728	-81.9197106547	5.30184644858e-08
67.4539201503	-82.3094365469	4.50995999158e-08
66.251625513	-82.6939485232	6.16142638317e-08
64.9250563299	-83.0727309216	4.20135146427e-08
63.4556487685	-83.4453253758	6.81949860203e-08
61.8213439537	-83.8110443364	3.87913401713e-08
59.9957858269	-84.168971071	4.95369439329e-08
57.9478054839	-84.5182461429	7.68026771382e-08
55.6404815246	-84.8575517492	7.02498022663e-08
53.0302978044	-85.1853981996	3.12625886237e-08
50.066702257	-85.4998947333	3.38680809569e-08
46.6922386747	-85.7988641108	4.20988900596e-08
42.8440249395	-86.0793269515	4.05964055936e-08
38.457689243	-86.3379601003	1.90078086607e-08
33.47520242	-86.5705809651	1.03222980353e-07
27.8580158698	-86.7724912921	6.54576857137e-08
21.6057972769	-86.9385917569	4.10363857901e-08
14.7775899421	-87.0637257394	3.10064438095e-08
7.50708210788	-87.143596056	4.17511066075e-08
0	-87.1753379178	2.44846583146e-05
87.3866061809	-33.9328337349	5.71078505175e-08
87.363458686	-34.3046260481	6.91810032825e-08
87.3399674164	-34.6790539672	8.9918349898e-08
87.3160750763	-35.0559456049	1.02693390219e-07
87.2918389616	-35.4354155526	9.22720269687e-08
87.2671444806	-35.8173492188	1.27337706227e-07
87.2421062249	-36.2018611951	1.41869235779e-07
87.2166096031	-36.58883689	1.13474788377e-07
87.1907119107	-36.9782763033	8.46616726742e-08
87.1644131479	-37.370236731	5.97396289584e-08
87.1376560189	-37.7646035814	7.15420897188e-08
87.1103832278	-38.161491446	5.63434963526e-08
87.0827093663	-38.5607857335	2.73786033285e-08
87.0545198428	-38.9624864436	3.48421262695e-08
87.0258719531	-39.3665362808	5.24449758871e-08
86.9966511055	-39.7730498364	5.10671727342e-08
86.9669718917	-40.1818552232	2.86615172258e-08
86.9367197201	-40.593009737	6.74659336212e-08
86.9059518865	-41.0065133778	7.54239172676e-08
86.8746110952	-41.4222515539	4.38570085686e-08
86.842697346	-41.8402815612	3.63716563322e-08
86.8101533432	-42.260546104	3.73974559135e-08
86.7770363826	-42.6830451821	2.39654925465e-08
86.7432891685	-43.1077214998	4.75513377344e-08
86.7089117008	-43.5345177614	5.33311356462e-08
86.6738466837	-43.9634339669	3.0589713607e-08
86.6380368215	-44.3944128204	2.89308890093e-08
86.6015967058	-44.8274543219	4.61033113152e-08
86.5644117449	-45.2625011758	4.74790723946e-08
86.5264819388	-45.6995533819	3.32510038554e-08
86.4878072877	-46.1385536445	3.82588229949e-08
86.4482731998	-46.5793873721	3.14418172864e-08
86.407936971	-47.0221118604	5.0290617791e-08
86.3667986013	-47.4666698136	9.52000256291e-08
86.3247434992	-47.9130039361	8.21149458695e-08
86.2818289603	-48.3610569318	4.81885555684e-08
86.2379403932	-48.8107715052	3.87032946247e-08
86.1931350936	-49.2621476562	8.46145533104e-08
86.14729847	-49.7150707933	6.39118623788e-08
86.1004878182	-50.1695409164	3.26984198226e-08
86.0525885465	-50.6255580255	3.87111601221e-08
86.003600655	-51.0829502334	3.5120244057e-08
85.9534668479	-51.54171754	2.52409775e-08
85.9021871253	-52.0018599452	5.30421548026e-08
85.8496468954	-52.4632055619	4.57396722819e-08
85.7958461585	-52.9258116857	5.62962051248e-08
85.7407849144	-53.3896210208	2.72242998025e-08
85.6843485715	-53.85446168	6.82840461133e-08
85.62653713	-54.320390959	5.8570312198e-08
85.5672359982	-54.7872369705	4.85463094316e-08
85.5064451762	-55.2550570102	5.86029800903e-08
85.444107368	-55.7237364866	3.58827980104e-08
85.3801079823	-56.1932181039	5.50107738972e-08
85.3143897232	-56.6634445664	1.01275314782e-07
85.2469525907	-57.1343012824	9.32787890187e-08
85.1776819933	-57.6058455478	5.88750241124e-08
85.1064633394	-58.0778481795	2.52955176887e-08
85.0332966289	-58.5503664731	5.59620159382e-08
84.9580099747	-59.0232858372	7.55210992616e-08
84.8806033765	-59.496548976	6.24315074181e-08
84.8009049472	-59.9701558894	3.52773344999e-08
84.718857391	-60.4438773945	4.62319229422e-08
84.634403412	-60.9178280826	6.30538088469e-08
84.5473138271	-61.3917787707	5.66428122228e-08
84.4575313406	-61.8657867546	3.68766444369e-08
84.3649413609	-62.3397374428	3.98844296109e-08
84.2693720007	-62.8135162436	6.0141223978e-08
84.1707659642	-63.287123157	6.99767729716e-08
84.0688367724	-63.7604435916	4.06001037224e-08
83.9635271297	-64.2334775472	3.38497048748e-08
83.8546078528	-64.7060531367	3.22997662401e-08
83.7419643503	-65.1781703598	2.3929887737e-08
83.6253101432	-65.649771921	3.86411732962e-08
83.5044733442	-66.1207432286	3.83181942335e-08
83.3792247702	-66.5910842826	2.35528682191e-08
83.2492779422	-67.0606231957	2.03547019264e-08
83.114460973	-67.5293599679	3.13446253082e-08
82.9744300879	-67.9971800077	4.03029102591e-08
82.828898808	-68.4640833149	4.11693725828e-08
82.6774660627	-68.9299552981	3.91643771788e-08
82.519902669	-69.3947386616	2.74677433534e-08
82.355692965	-69.8583761094	4.39634667045e-08
82.1845504715	-70.3208103458	2.94702281894e-08
82.005902231	-70.7819267793	2.96825876527e-08
81.8192898772	-71.2416681142	4.95084960961e-08
81.6241977479	-71.6999770545	3.93990055022e-08
81.4200528855	-72.1568536003	3.5125286818e-08
81.2061677406	-72.6121258643	4.07163494102e-08
80.9818547638	-73.0657938465	4.5596017628e-08
80.7463118142	-73.5177429553	3.82858338529e-08
80.4987367509	-73.9679158949	2.98839209337e-08
80.2382128415	-74.4162553696	5.08442788511e-08
79.9635941703	-74.8626467878	5.74301652029e-08
79.6737921175	-75.3070901495	3.2130234416e-08
79.367546176	-75.7495281589	2.65844797961e-08
79.0434239513	-76.1897889287	4.46155952944e-08
78.6997638658	-76.6278151631	2.8106733247e-08
78.3349043418	-77.0635495663	3.31435522962e-08
77.9467254356	-77.4969348425	5.21865883592e-08
77.5330499076	-77.9278564002	4.46192074757e-08
77.0912421517	-78.3561423521	3.5481828216e-08
76.618494675	-78.7818499939	3.3627764314e-08
76.1114270263	-79.2047501424	3.75831434208e-08
75.5662576842	-79.6247282063	3.5528624322e-08
74.9786894653	-80.0416695938	3.73071200103e-08
74.343680341	-80.4554597134	3.31625158166e-08
73.6553861417	-80.8659266779	3.45739618522e-08
72.9071032612	-81.272841304	2.62548558826e-08
72.0908675863	-81.6760317044	2.58096146133e-08
71.1973972006	-82.075268696	2.54836195877e-08
70.2156340186	-82.4702658	2.77719393425e-08
69.1325718985	-82.8606792416	4.58248644197e-08
67.9325690923	-83.2460506546	6.36615923993e-08
66.596717993	-83.6260362644	6.00014881948e-08
65.1025013591	-83.9999485215	2.61422914267e-08
63.4223026249	-84.3670998766	2.26003283183e-08
61.5226037593	-84.7266881888	5.01680107636e-08
59.3625528717	-85.0775675425	2.83388672967e-08
56.8922797154	-85.4183628391	4.29357496664e-08
54.0512627587	-85.7472979093	2.65180567663e-08
50.7669139784	-86.0621382177	6.73261719924e-08
46.954149142	-86.3600762712	4.29942735776e-08
42.5175077512	-86.637387844	4.46251771716e-08
37.3583780398	-86.8895465696	2.33611095706e-07
31.3911314655	-87.1109374617	2.69610400177e-07
24.5718508132	-87.2950288013	2.12203333018e-08
16.938683613	-87.434887799	1.06068755962e-06
8.65104964163	-87.5242692151	2.0351125708e-06
0	-87.5587039786	2.61304571461e-05
87.7797125241	-34.1303322868	6.63564054941e-08
87.7601746633	-34.5015516423	7.72981076222e-08
87.740235732	-34.8752920121	9.35216105748e-08
87.7200676176	-35.2514961004	9.30536619416e-08
87.6994984328	-35.6302784987	9.83701547397e-08
87.6786427691	-36.0115246156	1.38160319547e-07
87.6574433306	-36.3952917468	1.23874494494e-07
87.6359001175	-36.7815225965	9.50589862699e-08
87.613955834	-37.1702171647	6.62675024137e-08
87.5916677758	-37.5613754514	5.96537279375e-08
87.5690359429	-37.9549401609	6.57576020558e-08
87.5460030395	-38.3509685889	3.65830371404e-08
87.5225690657	-38.7494034396	2.20717654493e-08
87.4986767256	-39.1502447131	3.84512596062e-08
87.4744406109	-39.5534924093	5.38453200831e-08
87.4497461299	-39.9590892325	3.27717660679e-08
87.4245932827	-40.3669778868	3.34686686521e-08
87.3989820693	-40.7772156682	7.51734894116e-08
87.3729697854	-41.1897452806	5.68855334974e-08
87.3464418394	-41.6045667243	2.81324248504e-08
87.3193982315	-42.0215654076	3.97378142242e-08
87.2918962573	-42.4408559221	3.8103244854e-08
87.2638213254	-42.8623236762	5.89674994237e-08
87.2352880272	-43.2859113741	6.25576625571e-08
87.2061244754	-43.7116763117	4.13130522748e-08
87.1764452616	-44.1395038973	4.25624120758e-08
87.14619309	-44.5694514268	6.32563349904e-08
87.1153106649	-45.0014043085	5.35850038927e-08
87.0838552819	-45.4353052468	3.77004540735e-08
87.0517123496	-45.8712115373	5.08222968655e-08
87.0189391637	-46.3090658844	2.37872539273e-08
86.9855357243	-46.7487536963	3.17666177308e-08
86.9513874397	-47.1903322691	5.94683738022e-08
86.9165516058	-47.6336870109	9.36274381032e-08
86.8809136309	-48.078817922	6.36472168608e-08
86.8445881067	-48.5256677064	3.05107516099e-08
86.8074604416	-48.9741217726	1.73794445392e-08
86.7694733397	-49.4242947123	6.51441191011e-08
86.730684097	-49.8759573422	8.38953665696e-08
86.6910354176	-50.3292242539	4.78359978063e-08
86.6504700057	-50.7839235601	5.00203622525e-08
86.6089878613	-51.2400552608	7.92568614908e-08
86.5665316887	-51.6975047644	6.92200311916e-08
86.5230441921	-52.1563293668	4.93217849018e-08
86.4785826672	-52.6164717721	4.39873549164e-08
86.4330325224	-53.0777600929	4.01780333448e-08
86.3863937579	-53.5401943294	4.9362326233e-08
86.3386090778	-54.0037744814	9.59930243395e-08
86.2896211863	-54.4683286617	7.20852972757e-08
86.2393727877	-54.933914166	6.76023589586e-08
86.1878638819	-55.4004164028	4.41480350073e-08
86.1350371732	-55.8677780763	4.76399098241e-08
86.0808353658	-56.3359418907	3.42808849967e-08
86.0251438681	-56.8048505502	7.16251948058e-08
85.9680199759	-57.2744467591	7.52847550209e-08
85.9092918019	-57.7446159258	2.29653073863e-08
85.8489593461	-58.2153580503	3.42013807087e-08
85.7869653127	-58.686558541	7.0874079514e-08
85.7231378143	-59.158217398	5.29283598916e-08
85.6575341467	-59.6302200296	3.7385705999e-08
85.5899824227	-60.1025091401	2.51400411275e-08
85.5204253464	-60.574970138	3.50478427866e-08
85.448805622	-61.047660319	3.84810199344e-08
85.3749513622	-61.5204077957	4.96313506776e-08
85.298862567	-61.9931552725	3.21835184784e-08
85.2203100533	-62.4659027493	3.58195821891e-08
85.139293821	-62.9385356345	5.58373608541e-08
85.055641983	-63.4109966323	6.23789414094e-08
84.9691826517	-63.8831711513	3.0211208424e-08
84.8798585314	-64.3550591914	2.97778434594e-08
84.787440439	-64.8266034568	3.76893432042e-08
84.6918710788	-65.2976320601	4.05112332043e-08
84.5928639718	-65.7682022973	5.19149171554e-08
84.4903045265	-66.2381995766	2.91183672019e-08
84.3839635597	-66.7075093066	2.89245905225e-08
84.2736691842	-67.1761314872	3.78365884751e-08
84.1591922167	-67.643951527	5.44050579842e-08
84.0402461784	-68.1109694258	5.89915708129e-08
83.916659182	-68.5770132963	3.98473437021e-08
83.788030157	-69.0421404344	5.20476589147e-08
83.6541299203	-69.5062362485	6.2515768743e-08
83.5146146972	-69.969186147	4.8234019871e-08
83.3690834172	-70.4309901298	3.77362260474e-08
83.2171923057	-70.8915336056	7.08995529064e-08
83.0584829965	-71.3507592784	5.96835186574e-08
82.8924971232	-71.8086671482	6.07773172988e-08
82.7187763197	-72.2651426236	5.21767487226e-08
82.5367476282	-72.7201284087	3.91519039729e-08
82.3457234993	-73.1735672078	3.73596705761e-08
82.1451309752	-73.625401725	4.26508235931e-08
81.9341679151	-74.0755173689	3.61750720455e-08
81.7120321779	-74.5239141393	3.9912928969e-08
81.4778070313	-74.9704774449	3.46443040176e-08
81.2305184469	-75.4152072854	2.3481131598e-08
80.969077805	-75.8579317737	4.7009234239e-08
80.6921673026	-76.2987082055	4.02615450581e-08
80.3984691368	-76.7373646935	4.17774424432e-08
80.0863790258	-77.1739012376	3.25687614744e-08
79.7541208004	-77.6082032463	4.02330976829e-08
79.3996891083	-78.0402134238	6.09168523955e-08
79.02090671	-78.4698171786	3.73437617857e-08
78.6151379994	-78.8969572149	1.85970652781e-08
78.1794035962	-79.3215762369	3.95235887924e-08
77.7103803452	-79.7435023572	3.33758048571e-08
77.2041721332	-80.1627355759	5.92628499338e-08
76.6562525937	-80.5789894141	2.59235707859e-08
76.061350515	-80.9923211675	1.51588606416e-08
75.4132206571	-81.4024443572	3.64302876557e-08
74.7047583435	-81.8093016876	6.07105072113e-08
73.9271973197	-82.2126066795	3.09985665217e-08
73.0703389371	-82.6121874459	5.23852780771e-08
72.121864603	-83.0077575076	4.83202040896e-08
71.0668201191	-83.3990303859	4.7179055083e-08
69.8870427231	-83.7856050103	4.27776584146e-08
68.5601870611	-84.1670230145	1.83832561638e-08
67.0586938632	-84.5427687366	4.82425846018e-08
65.3481856616	-84.9119827397	4.96016482866e-08
63.3855760302	-85.2738628831	3.03455359053e-08
61.1164912741	-85.6271486596	4.03874328527e-08
58.4721191623	-85.9703503789	2.29625563962e-08
55.3655477266	-86.3014053929	3.78233802386e-07
51.6881040623	-86.6175062085	5.5189894404e-08
47.3068046649	-86.9151004873	5.17736125949e-08
42.0670254143	-87.1892034965	4.84371454088e-08
35.8069916771	-87.4335127003	1.16462424108e-06
28.395593521	-87.6398920981	8.13116486846e-07
19.8036673943	-87.7989451821	1.74372889148e-06
10.1981560096	-87.9012181485	8.59198999119e-07
0	-87.9396636166	2.82580358899e-05
88.1722459096	-34.3254244161	6.62819601897e-08
88.1562030913	-34.6959562222	8.18896120271e-08
88.1399310899	-35.0689517468	9.46603871341e-08
88.1234299054	-35.4445255815	8.43909206729e-08
88.1065849462	-35.822505839	1.19527651207e-07
88.0895108039	-36.2030644065	1.33207330514e-07
88.0721501828	-36.5860293968	1.05021503909e-07
88.0545030827	-36.9714581056	7.64342583367e-08
88.0365695037	-37.3593505329	5.10862358047e-08
88.0183494458	-37.7497066787	6.20709516398e-08
87.9997856132	-38.1424692472	4.82762716168e-08
87.9809353018	-38.5376382385	3.24108381758e-08
87.9617412156	-38.9352136526	3.81953812368e-08
87.9422606506	-39.3351381936	4.14494669839e-08
87.9223790151	-39.7374118616	4.84690123909e-08
87.9021536049	-40.1420919523	2.35453993492e-08
87.8815844201	-40.5490638741	5.46202486672e-08
87.8606141648	-40.9583276272	6.87102646982e-08
87.8393001348	-41.3698259157	3.93092514402e-08
87.8175850344	-41.7836160353	3.63789853559e-08
87.7954688635	-42.1996406903	4.33257034636e-08
87.7729516221	-42.6178998808	5.98304823315e-08
87.7499760146	-43.0382790151	7.66069977511e-08
87.7265993365	-43.4607780932	5.59076906574e-08
87.7027642922	-43.885454411	4.41181779439e-08
87.6784708817	-44.3121933768	6.84827901367e-08
87.653719105	-44.7409949906	7.57093219306e-08
87.6284516662	-45.171744661	4.64702852038e-08
87.6026685654	-45.6045569795	6.09458001914e-08
87.5763698026	-46.0392600586	4.18991415557e-08
87.5495553778	-46.4759111943	1.65913340741e-08
87.5221679952	-46.9143957949	3.36511770919e-08
87.4942076548	-47.3547138605	7.5408585864e-08
87.4656743566	-47.796865391	7.899014797e-08
87.4365108048	-48.2407357949	4.54419979874e-08
87.4067742953	-48.6862677764	2.02639312879e-08
87.3763502363	-49.1335186312	6.37871665339e-08
87.3452959239	-49.5823164722	1.08697204631e-07
87.3134967662	-50.0327185949	8.56249161378e-08
87.2810100592	-50.4846677037	5.18638437222e-08
87.2478358029	-50.938049207	5.35613818475e-08
87.2138594056	-51.392805809	4.70559244902e-08
87.1790808675	-51.8489948055	6.0698907592e-08
87.1435001884	-52.3064443091	3.35116592377e-08
87.1070600726	-52.7652116157	4.23103032253e-08
87.0697605202	-53.2251248378	3.40326762596e-08
87.0315442352	-53.6861839756	8.75086462621e-08
86.9924112178	-54.1483890289	1.23791560099e-07
86.9523041722	-54.6115681105	9.14073249798e-08
86.9111658025	-55.0757785161	5.6589441353e-08
86.868938813	-55.5409056542	4.27902855738e-08
86.8256804994	-56.0068349332	4.67540831323e-08
86.7812762703	-56.4736236489	6.33753963042e-08
86.7356688298	-56.9411572097	9.17420428993e-08
86.6888008822	-57.4093210241	5.74946182156e-08
86.6407297232	-57.8781150921	2.6827418625e-08
86.5912834655	-58.3474821179	6.61747872988e-08
86.540462109	-58.8173075099	7.67992835384e-08
86.4882083581	-59.2875912681	5.63490997853e-08
86.4344076212	-59.758218801	3.21927392939e-08
86.3790598981	-60.2291328128	3.39251216786e-08
86.3220505975	-60.7002760078	3.61410071249e-08
86.2633224235	-61.1715910901	3.12919787921e-08
86.2028180804	-61.6430207639	3.28472894249e-08
86.1404229765	-62.1145077335	1.50191580302e-08
86.0760798161	-62.5859374073	3.14038945234e-08
86.0096167118	-63.0572524896	3.3598417604e-08
85.9410336638	-63.5284529803	4.40295179829e-08
85.8701587845	-63.9993669921	1.79325558494e-08
85.7968774825	-64.4700518208	2.44847918996e-08
85.721132462	-64.9403355791	2.6285983892e-08
85.6426945398	-65.4102182669	3.48912480269e-08
85.5614491245	-65.8795852926	4.62941663324e-08
85.4773389202	-66.3484366564	3.41806614088e-08
85.390077448	-66.8166577666	3.60621159489e-08
85.2996074121	-67.2841913274	3.33663388076e-08
85.2056423337	-67.7510373389	4.76048997881e-08
85.1080103254	-68.2169666179	4.22849069344e-08
85.0065394999	-68.682093756	2.96743557118e-08
84.9009433783	-69.1463041616	4.9037766496e-08
84.7909354816	-69.6094832432	6.80033292064e-08
84.6763439226	-70.0715737049	6.35362116628e-08
84.5568249265	-70.5325755469	3.47959849052e-08
84.4320347187	-70.9923741775	4.2076266566e-08
84.3015722288	-71.4509695967	3.8802990088e-08
84.1651509778	-71.9081899172	1.77969200991e-08
84.0223125994	-72.3640924348	3.05162207893e-08
83.8725987276	-72.8185625579	4.9057410423e-08
83.7154937001	-73.2715429907	4.51049162993e-08
83.5503672636	-73.7229764375	2.68496989643e-08
83.3767037559	-74.1728056025	2.08954531186e-08
83.1938156277	-74.6209731898	2.72078958109e-08
83.0009007381	-75.0674219038	3.00053704701e-08
82.7970996503	-75.5120944486	4.04846960607e-08
82.5815529278	-75.9549335285	4.08735699934e-08
82.3531719507	-76.3958818476	3.41693023388e-08
82.1107535075	-76.8348248144	4.20188947474e-08
81.8530370913	-77.271762429	6.16893292737e-08
81.5784757159	-77.7066373955	4.52595953923e-08
81.2854078037	-78.1393351224	4.35263719716e-08
80.9719425939	-78.5698556097	2.98991136442e-08
80.6359028471	-78.99802697	3.62548881793e-08
80.2746529573	-79.4238492033	5.26736497583e-08
79.885442727	-79.8472650139	4.14995128236e-08
79.4648344096	-80.2681598102	4.20129283515e-08
79.008931892	-80.6864190007	3.64290536577e-08
78.5132088077	-81.1019279937	4.67275867692e-08
77.9722793533	-81.5146294935	2.2514013088e-08
77.3797836974	-81.9244089086	3.71720343654e-08
76.7280442054	-82.3310943516	4.83916545043e-08
76.0080081443	-82.7345139351	4.8987346086e-08
75.2085601327	-83.1344384761	3.73106278694e-08
74.3162356626	-83.5306960872	2.45191595896e-08
73.3142470705	-83.9230002896	4.43732857169e-08
72.1818532842	-84.3109500127	7.15690380337e-08
70.892984724	-84.6942014818	5.02031485881e-08
69.4143525421	-85.0720671477	4.55508081452e-08
67.7031567912	-85.4439740525	4.93213776143e-08
65.7038778608	-85.8088908722	2.68982639824e-08
63.3433490407	-86.1656143955	3.46067237661e-08
60.5246258718	-86.5124257489	3.03057998671e-08
57.1185522079	-86.8468612139	2.83472564224e-08
52.9537048064	-87.1656549311	1.2425232625e-07
47.8072431919	-87.4638794635	4.13825996184e-07
41.4056143948	-87.734773909	2.2636926235e-08
33.4572860297	-87.968655281	1.82770164506e-06
23.7585945188	-88.1530903952	1.94032486727e-06
12.4029663602	-88.2736980111	1.45400193298e-06
0	-88.3183314234	3.07928210294e-05
88.5640917457	-34.517995531	6.98417695961e-08
88.5516012657	-34.8878397878	8.5649138513e-08
88.5389388984	-35.2601477631	8.41306945137e-08
88.5261046438	-35.6349194569	9.03360923019e-08
88.5130412061	-36.0122121649	1.29682787039e-07
88.4997485853	-36.3919112958	1.1552643223e-07
88.4862267813	-36.7741314409	8.6927790941e-08
88.4724757942	-37.158700713	5.83431345709e-08
88.4585529198	-37.5457909994	5.02200528159e-08
88.4443435665	-37.9352877085	5.7585251382e-08
88.42990503	-38.3271335446	3.13352536155e-08
88.4152373105	-38.7214430992	3.96746443622e-08
88.400283112	-39.118044485	4.66286076957e-08
